ply
format ascii 1.0
comment Created by CloudCompare v2.11.1 (Anoia)
comment Created 1/31/24 2:31 PM
obj_info Generated by CloudCompare!
element vertex 1648
property float x
property float y
property float z
property float scalar_ObjIdx
end_header
14.1668 -50.0636 -2.04785 0 
13.8528 -50.1181 -2.04658 0 
13.9978 -51.8716 -2.11467 0 
13.089 -49.7063 -2.02311 0 
12.7794 -49.7601 -2.02208 0 
13.7434 -54.9001 -2.22752 0 
13.4091 -54.9848 -2.22759 0 
13.0741 -55.0674 -2.22767 0 
11.5437 -49.9744 -2.01876 0 
11.2353 -50.0279 -2.01811 0 
12.0665 -55.3031 -2.22791 0 
11.7297 -55.3776 -2.22799 0 
6.96768 -33.9138 -1.36271 0 
6.75975 -33.9499 -1.36248 0 
6.55182 -33.9859 -1.3623 0 
6.344 -34.022 -1.36217 0 
6.13619 -34.058 -1.36209 0 
5.92836 -34.0941 -1.36206 0 
5.72059 -34.1301 -1.36208 0 
5.51277 -34.1662 -1.36216 0 
5.30492 -34.2022 -1.36227 0 
5.09703 -34.2382 -1.36245 0 
4.8891 -34.2743 -1.36268 0 
4.6809 -34.3095 -1.36291 0 
4.47285 -34.3456 -1.36324 0 
4.26461 -34.3817 -1.36361 0 
4.05629 -34.4179 -1.36405 0 
3.84781 -34.454 -1.36452 0 
3.6392 -34.4902 -1.36505 0 
3.43037 -34.5264 -1.36563 0 
3.22139 -34.5627 -1.36626 0 
3.01225 -34.5989 -1.36694 0 
2.80279 -34.6353 -1.36769 0 
2.59318 -34.6716 -1.36847 0 
2.38326 -34.708 -1.36931 0 
3.53664 -56.5441 -2.2299 0 
3.19211 -56.5668 -2.22998 0 
2.84742 -56.5872 -2.23006 0 
2.50264 -56.6056 -2.23014 0 
2.1577 -56.6217 -2.23022 0 
1.8126 -56.636 -2.2303 0 
1.46748 -56.6479 -2.23038 0 
1.12227 -56.658 -2.23046 0 
0.776992 -56.6657 -2.23054 0 
0.43168 -56.6716 -2.23062 0 
0.0804297 -52.8083 -2.07851 0 
-0.241406 -52.7976 -2.0781 0 
-0.563672 -52.8446 -2.08005 0 
-0.886211 -52.8692 -2.08119 0 
-1.20902 -52.8904 -2.08228 0 
-1.53562 -53.0303 -2.08811 0 
-1.86547 -53.2107 -2.09563 0 
-2.19877 -53.4189 -2.10431 0 
-2.54199 -53.7791 -2.11908 0 
-2.88996 -54.1421 -2.13403 0 
-3.24139 -54.4861 -2.14833 0 
-3.60602 -54.9623 -2.16794 0 
-3.97355 -55.395 -2.18591 0 
-4.34445 -55.7989 -2.20287 0 
-4.74604 -56.5052 -2.23185 0 
-5.09055 -56.4773 -2.23193 0 
-5.43482 -56.4473 -2.23201 0 
-5.77894 -56.4152 -2.23209 0 
-6.12285 -56.3809 -2.23217 0 
-6.46652 -56.3445 -2.23225 0 
-6.81008 -56.3062 -2.23233 0 
-7.15332 -56.2656 -2.23241 0 
-7.49637 -56.2231 -2.23249 0 
-7.83914 -56.1783 -2.23257 0 
-8.18164 -56.1313 -2.23265 0 
-8.52389 -56.0826 -2.23273 0 
-8.86576 -56.0315 -2.23281 0 
-9.20742 -55.9785 -2.23289 0 
-9.54875 -55.9234 -2.23296 0 
-9.88977 -55.8662 -2.23304 0 
-10.2304 -55.8067 -2.23312 0 
-10.5707 -55.7455 -2.2332 0 
-10.9106 -55.6819 -2.23328 0 
-11.2501 -55.6161 -2.23336 0 
-11.5893 -55.5488 -2.23344 0 
-11.9279 -55.4789 -2.23352 0 
-12.2662 -55.4072 -2.2336 0 
-12.6041 -55.3334 -2.23368 0 
-12.9415 -55.2574 -2.23376 0 
-13.2786 -55.1796 -2.23383 0 
-13.615 -55.0994 -2.23391 0 
-13.9511 -55.0174 -2.23399 0 
-14.2866 -54.9334 -2.23407 0 
-14.6216 -54.8471 -2.23415 0 
-14.9561 -54.759 -2.23423 0 
-15.2901 -54.6686 -2.2343 0 
-15.6236 -54.5764 -2.23438 0 
-15.9564 -54.482 -2.23446 0 
-16.2887 -54.3856 -2.23454 0 
-16.6204 -54.2873 -2.23461 0 
-16.9515 -54.1868 -2.23469 0 
-17.282 -54.0843 -2.23477 0 
-17.612 -53.9801 -2.23484 0 
-17.9412 -53.8734 -2.23492 0 
-18.2698 -53.765 -2.235 0 
-18.5978 -53.6545 -2.23507 0 
-18.925 -53.5419 -2.23515 0 
-12.7155 -35.2883 -1.47634 0 
-12.7692 -34.7715 -1.45795 0 
-12.8217 -34.2673 -1.44006 0 
-12.8728 -33.7754 -1.42266 0 
-12.9227 -33.2952 -1.40572 0 
-12.9714 -32.8262 -1.38924 0 
-13.019 -32.3682 -1.37318 0 
-13.0655 -31.9205 -1.35754 0 
-13.111 -31.4829 -1.3423 0 
-13.1554 -31.055 -1.32746 0 
-13.1989 -30.6365 -1.31298 0 
-13.2415 -30.2271 -1.29887 0 
-13.2831 -29.8262 -1.2851 0 
-13.3239 -29.4338 -1.27167 0 
-13.3638 -29.0495 -1.25855 0 
-13.403 -28.673 -1.24576 0 
-13.4413 -28.3041 -1.23327 0 
-13.4789 -27.9424 -1.22107 0 
-13.5157 -27.5879 -1.20916 0 
-13.5518 -27.2402 -1.19751 0 
-13.5873 -26.8991 -1.18614 0 
-13.6221 -26.5645 -1.17502 0 
-13.6562 -26.236 -1.16415 0 
-13.6897 -25.9136 -1.15352 0 
-13.7226 -25.5969 -1.14312 0 
-13.7549 -25.286 -1.13296 0 
-13.7867 -24.9804 -1.12302 0 
-13.8179 -24.6802 -1.11328 0 
-13.8485 -24.3852 -1.10376 0 
-13.8787 -24.095 -1.09444 0 
-13.9083 -23.8098 -1.08531 0 
-13.9375 -23.5293 -1.07638 0 
-13.9662 -23.2534 -1.06763 0 
-13.9944 -22.9818 -1.05906 0 
-14.0221 -22.7146 -1.05066 0 
-14.0495 -22.4516 -1.04244 0 
-14.0764 -22.1927 -1.03438 0 
-14.083 -21.9069 -1.02505 0 
-14.0822 -21.6149 -1.01538 0 
-14.0814 -21.3284 -1.00593 0 
-14.0806 -21.0471 -0.996693 0 
-14.0798 -20.7709 -0.987659 0 
-14.0791 -20.4997 -0.978825 0 
-14.0783 -20.2333 -0.970183 0 
-14.0776 -19.9715 -0.961726 0 
-14.0768 -19.7142 -0.953452 0 
-14.0762 -19.4613 -0.945352 0 
-14.0755 -19.2127 -0.937426 0 
-14.0748 -18.9682 -0.929661 0 
-14.0741 -18.7277 -0.922063 0 
-14.0734 -18.4912 -0.914627 0 
-14.0728 -18.2583 -0.907333 0 
-14.0722 -18.0292 -0.900188 0 
-14.0716 -17.8036 -0.893194 0 
-14.0709 -17.5815 -0.886335 0 
-14.0703 -17.3628 -0.879615 0 
-14.0697 -17.1473 -0.873028 0 
-14.0691 -16.9351 -0.866571 0 
-14.0686 -16.7259 -0.860238 0 
-14.0679 -16.5199 -0.85403 0 
-14.0674 -16.3167 -0.847943 0 
-14.0668 -16.1163 -0.841973 0 
-14.0663 -15.9188 -0.836117 0 
-14.0658 -15.724 -0.830376 0 
-14.0652 -15.5319 -0.82474 0 
-14.0646 -15.3424 -0.81921 0 
-14.0642 -15.1554 -0.813785 0 
-14.0636 -14.9708 -0.808463 0 
-14.0631 -14.7886 -0.803236 0 
-14.0626 -14.6087 -0.798109 0 
-14.0621 -14.4311 -0.793073 0 
-14.0616 -14.2558 -0.78813 0 
-14.0612 -14.0826 -0.783282 0 
-14.0607 -13.9115 -0.778523 0 
-14.0602 -13.7425 -0.773831 0 
-14.0597 -13.5755 -0.769247 0 
-14.0592 -13.4104 -0.764737 0 
-14.0588 -13.2473 -0.760306 0 
-14.0583 -13.0861 -0.755953 0 
-14.0579 -12.9266 -0.751677 0 
-14.0575 -12.769 -0.747481 0 
-14.057 -12.6131 -0.743356 0 
-14.0566 -12.4589 -0.739305 0 
-14.0562 -12.3064 -0.735323 0 
-14.0557 -12.1555 -0.731412 0 
-14.0553 -12.0062 -0.727572 0 
-14.0549 -11.8585 -0.723794 0 
-14.0545 -11.7122 -0.720085 0 
-14.0541 -11.5675 -0.716439 0 
-14.0538 -11.4242 -0.712854 0 
-14.0533 -11.2824 -0.709334 0 
-14.0529 -11.1419 -0.705873 0 
-14.0525 -11.0028 -0.702472 0 
-14.0521 -10.865 -0.699129 0 
-14.0517 -10.7285 -0.695847 0 
-14.0514 -10.5933 -0.692618 0 
-14.051 -10.4593 -0.689443 0 
-14.0507 -10.3266 -0.686324 0 
-14.0608 -10.2027 -0.683774 0 
-14.2419 -10.2022 -0.689544 0 
-14.4262 -10.2016 -0.695441 0 
-14.6135 -10.2012 -0.701462 0 
-14.8042 -10.2006 -0.707616 0 
-14.9982 -10.2001 -0.713906 0 
-15.1957 -10.1995 -0.720334 0 
-15.3968 -10.199 -0.726908 0 
-15.6017 -10.1984 -0.733632 0 
-15.8103 -10.1978 -0.740504 0 
-16.0229 -10.1972 -0.747541 0 
-16.2396 -10.1966 -0.754738 0 
-16.4606 -10.196 -0.762101 0 
-16.6858 -10.1954 -0.769642 0 
-16.9157 -10.1947 -0.777359 0 
-17.15 -10.1941 -0.785266 0 
-17.3894 -10.1934 -0.79336 0 
-17.6337 -10.1927 -0.801656 0 
-17.8831 -10.192 -0.810161 0 
-18.1379 -10.1913 -0.818875 0 
-18.3983 -10.1905 -0.827811 0 
-18.6644 -10.1898 -0.836972 0 
-18.9365 -10.1891 -0.846374 0 
-19.2148 -10.1883 -0.85602 0 
-19.4995 -10.1875 -0.865923 0 
-19.7908 -10.1866 -0.87609 0 
-20.0892 -10.1858 -0.88653 0 
-20.3947 -10.185 -0.897258 0 
-20.7077 -10.1841 -0.908279 0 
-21.0285 -10.1832 -0.919612 0 
-21.3574 -10.1823 -0.931265 0 
-21.6948 -10.1813 -0.943254 0 
-22.041 -10.1803 -0.955591 0 
-22.3964 -10.1794 -0.968291 0 
-22.7614 -10.1783 -0.98137 0 
-23.1363 -10.1773 -0.994839 0 
-23.5218 -10.1762 -1.00873 0 
-52.2061 -22.2092 -2.23301 0 
-52.3413 -21.891 -2.23304 0 
-52.4744 -21.5718 -2.23307 0 
-52.6057 -21.252 -2.2331 0 
-52.7349 -20.9312 -2.23313 0 
-52.8621 -20.6097 -2.23316 0 
-52.9873 -20.2875 -2.23319 0 
-53.1108 -19.9645 -2.23322 0 
-53.2321 -19.6406 -2.23325 0 
-53.3515 -19.3161 -2.23328 0 
-53.4689 -18.9908 -2.2333 0 
-53.5841 -18.6648 -2.23333 0 
-53.6975 -18.3381 -2.23336 0 
-53.8089 -18.0107 -2.23338 0 
-53.9183 -17.6827 -2.23341 0 
-54.0258 -17.354 -2.23343 0 
-54.131 -17.0246 -2.23346 0 
-54.2344 -16.6946 -2.23348 0 
-54.3356 -16.3639 -2.2335 0 
-54.4349 -16.0326 -2.23353 0 
-54.5322 -15.7008 -2.23355 0 
-54.6274 -15.3683 -2.23357 0 
-54.7204 -15.0352 -2.23359 0 
-54.8117 -14.7016 -2.23361 0 
-54.9009 -14.3675 -2.23363 0 
-54.9876 -14.0327 -2.23365 0 
-54.9864 -13.676 -2.23017 0 
-55.1556 -13.3617 -2.23369 0 
-55.2365 -13.0254 -2.23371 0 
-55.3153 -12.6887 -2.23373 0 
-55.2228 -12.3136 -2.22692 0 
-55.4669 -12.0137 -2.23376 0 
-55.5392 -11.6755 -2.23378 0 
-55.6099 -11.337 -2.2338 0 
-55.6783 -10.9979 -2.23381 0 
-55.7448 -10.6585 -2.23383 0 
-55.809 -10.3186 -2.23384 0 
-55.8712 -9.97836 -2.23385 0 
-55.9313 -9.63773 -2.23387 0 
-55.9894 -9.2968 -2.23388 0 
-56.0452 -8.95547 -2.23389 0 
-56.099 -8.61375 -2.23391 0 
-56.1508 -8.27178 -2.23392 0 
-56.2006 -7.92949 -2.23393 0 
-56.248 -7.58687 -2.23394 0 
-56.2934 -7.24393 -2.23395 0 
-56.337 -6.9008 -2.23396 0 
-25.9974 -3.02375 -1.03014 0 
-25.4253 -2.80029 -1.00676 0 
-25.1259 -2.6124 -0.994275 0 
-24.5376 -2.40018 -0.970401 0 
-23.6171 -2.1649 -0.933449 0 
-23.3579 -1.99768 -0.922708 0 
-22.931 -1.82049 -0.90539 0 
-22.4422 -1.64414 -0.885679 0 
-21.6442 -1.45312 -0.85382 0 
-21.2024 -1.29369 -0.836063 0 
-21.0878 -1.15777 -0.831253 0 
-20.6821 -1.0091 -0.815007 0 
-20.2851 -0.865859 -0.799136 0 
-19.9032 -0.728047 -0.783902 0 
-19.2422 -0.586484 -0.757718 0 
-18.9372 -0.461699 -0.745581 0 
-18.8825 -0.345254 -0.743333 0 
-18.9049 -0.230391 -0.74414 0 
-18.9463 -0.11543 -0.745729 0 
-18.988 1.95312e-05 -0.888594 0 
-19.0298 0.116016 -0.890569 0 
-19.0719 0.232461 -0.892585 0 
-19.1141 0.349512 -0.894646 0 
-19.1565 0.46709 -0.896748 0 
-19.1991 0.585215 -0.898894 0 
-19.242 0.703926 -0.901083 0 
-19.285 0.823242 -0.903318 0 
-19.3282 0.943145 -0.905595 0 
-19.3717 1.06361 -0.907917 0 
-19.4154 1.18473 -0.910287 0 
-19.5473 1.31242 -0.916833 0 
-20.3984 1.49447 -0.957159 0 
-20.4448 1.62318 -0.959783 0 
-20.4915 1.75264 -0.962458 0 
-20.5385 1.88281 -0.965185 0 
-20.5857 2.01369 -0.967966 0 
-20.6332 2.14537 -0.970796 0 
-20.681 2.27781 -0.973678 0 
-20.7291 2.41104 -0.976614 0 
-20.7774 2.54508 -0.979607 0 
-20.8261 2.67998 -0.982652 0 
-20.8751 2.81574 -0.985755 0 
-20.9244 2.95232 -0.988914 0 
-20.974 3.0898 -0.992128 0 
-21.0239 3.22816 -0.995402 0 
-21.0741 3.3675 -0.998735 0 
-21.1247 3.50771 -1.00213 0 
-21.1757 3.64891 -1.00558 0 
-21.227 3.79111 -1.0091 0 
-21.2787 3.9343 -1.01267 0 
-21.3307 4.07854 -1.01631 0 
-21.3831 4.22375 -1.02002 0 
-21.4359 4.37008 -1.02379 0 
-21.4891 4.5175 -1.02762 0 
-21.5427 4.66604 -1.03152 0 
-21.5967 4.8157 -1.0355 0 
-21.6511 4.96654 -1.03954 0 
-21.7059 5.11854 -1.04365 0 
-21.7612 5.27182 -1.04783 0 
-21.817 5.42627 -1.05209 0 
-21.8731 5.58199 -1.05642 0 
-21.9298 5.73904 -1.06083 0 
-21.8168 5.85178 -1.05707 0 
-21.5923 5.93281 -1.04792 0 
-21.3714 6.01246 -1.03896 0 
-21.259 6.1209 -1.03529 0 
-21.2456 6.25746 -1.03648 0 
-21.3027 6.41564 -1.04114 0 
-21.3603 6.57523 -1.0459 0 
-21.4184 6.73627 -1.05074 0 
-21.477 6.89883 -1.05565 0 
-21.5362 7.06291 -1.06066 0 
-21.596 7.22857 -1.06576 0 
-21.6563 7.39582 -1.07094 0 
-21.7173 7.56473 -1.07621 0 
-21.7788 7.73535 -1.08158 0 
-24.0984 8.72498 -1.19939 0 
-23.9218 8.82629 -1.19326 0 
-23.747 8.9266 -1.18723 0 
-23.6304 9.04746 -1.18413 0 
-23.7526 9.26064 -1.19307 0 
-23.8768 9.47709 -1.20218 0 
-24.0028 9.69687 -1.21148 0 
-24.1309 9.92006 -1.22097 0 
-24.2609 10.1468 -1.23062 0 
-24.3931 10.3772 -1.24054 0 
-24.5274 10.6113 -1.25064 0 
-24.6639 10.8493 -1.26095 0 
-24.8027 11.0912 -1.27148 0 
-24.9438 11.3373 -1.28223 0 
-25.0874 11.5875 -1.29322 0 
-25.2334 11.842 -1.30444 0 
-25.3819 12.1011 -1.31591 0 
-25.5331 12.3647 -1.32762 0 
-25.6871 12.6331 -1.33961 0 
-25.8438 12.9063 -1.35186 0 
-26.0035 13.1846 -1.36439 0 
-42.5696 21.9114 -2.24057 0 
-42.4347 22.1701 -2.24054 0 
-42.2982 22.428 -2.24051 0 
-42.16 22.6849 -2.24047 0 
-42.0204 22.9411 -2.24044 0 
-41.8792 23.1964 -2.24041 0 
-41.7364 23.451 -2.24038 0 
-41.5921 23.7045 -2.24034 0 
-41.4462 23.9571 -2.24031 0 
-41.2989 24.2089 -2.24027 0 
-41.1498 24.4597 -2.24024 0 
-40.9994 24.7097 -2.2402 0 
-21.8461 13.3484 -1.19809 0 
-21.6922 13.4367 -1.19412 0 
-21.5394 13.5243 -1.19022 0 
-21.406 13.6231 -1.18741 0 
-21.5735 13.9152 -1.20139 0 
-21.745 14.2142 -1.21575 0 
-39.9037 26.4326 -2.23994 0 
-27.7909 18.6536 -1.56636 0 
-23.1426 15.739 -1.30975 0 
-22.9785 15.8332 -1.3059 0 
-22.8154 15.9267 -1.30213 0 
-20.2061 14.2891 -1.15815 0 
-20.0623 14.3716 -1.15491 0 
-19.9193 14.4537 -1.15172 0 
-19.777 14.5353 -1.1486 0 
-19.8115 14.7474 -1.1558 0 
-20.002 15.0795 -1.17226 0 
-29.1112 22.2265 -1.71403 0 
-29.4021 22.7335 -1.73926 0 
-37.6778 29.5009 -2.23942 0 
-21.8918 17.357 -1.30743 0 
-21.7332 17.448 -1.30428 0 
-21.5754 17.5386 -1.30119 0 
-21.4182 17.6287 -1.29817 0 
-21.2618 17.7185 -1.29521 0 
-21.1061 17.8078 -1.29232 0 
-20.9511 17.8967 -1.28948 0 
-20.7967 17.9853 -1.2867 0 
-20.643 18.0734 -1.28399 0 
-20.49 18.1612 -1.28132 0 
-20.3376 18.2486 -1.27873 0 
-20.1858 18.3357 -1.27619 0 
-15.2477 14.0207 -0.969371 0 
-15.133 14.0865 -0.967522 0 
-15.0188 14.152 -0.965717 0 
-14.9051 14.2172 -0.963954 0 
-14.7916 14.2823 -0.962234 0 
-14.6787 14.3471 -0.960557 0 
-14.8842 14.7262 -0.979844 0 
-16.43 16.4551 -1.0882 0 
-16.3029 16.528 -1.08644 0 
-16.1762 16.6007 -1.08471 0 
-16.0499 16.6732 -1.08304 0 
-16.2222 17.0591 -1.10166 0 
-18.2615 19.4395 -1.24817 0 
-18.1168 19.5225 -1.24639 0 
-17.9725 19.6053 -1.24466 0 
-17.8286 19.6878 -1.24298 0 
-17.9421 20.0574 -1.25939 0 
-18.347 20.7634 -1.29667 0 
-18.7767 21.5124 -1.33628 0 
-19.2334 22.3087 -1.37843 0 
-19.7199 23.1568 -1.42339 0 
-22.0745 26.2441 -1.60485 0 
-21.8904 26.3496 -1.60312 0 
-21.7068 26.4549 -1.60145 0 
-12.595 15.5423 -0.936188 0 
-12.488 15.6037 -0.935281 0 
-12.3812 15.665 -0.934415 0 
-12.2746 15.7261 -0.933582 0 
-12.1681 15.7871 -0.932789 0 
-12.1096 15.9109 -0.935721 0 
-13.5903 18.084 -1.05863 0 
-13.4699 18.1531 -1.05785 0 
-13.7443 18.7606 -1.08833 0 
-14.8319 20.5062 -1.18435 0 
-17.5245 24.5426 -1.41128 0 
-17.3644 24.6344 -1.41045 0 
-17.2045 24.7261 -1.40967 0 
-19.1689 27.9107 -1.58454 0 
-20.8486 30.7564 -1.73885 0 
-20.9186 31.2682 -1.76054 0 
-27.3139 41.3711 -2.31997 0 
-26.9899 41.4272 -2.31385 0 
-26.6677 41.4831 -2.30786 0 
-26.347 41.5387 -2.30198 0 
-26.028 41.5941 -2.29621 0 
-25.7106 41.6491 -2.29056 0 
-25.3947 41.7039 -2.28501 0 
-25.0804 41.7585 -2.27958 0 
-24.7675 41.8127 -2.27426 0 
-24.4561 41.8667 -2.26906 0 
-24.146 41.9205 -2.26395 0 
-23.8373 41.9741 -2.25896 0 
-23.5301 42.0274 -2.25407 0 
-23.2241 42.0804 -2.24928 0 
-22.9194 42.1333 -2.24459 0 
-22.616 42.1859 -2.24001 0 
-22.3137 42.2383 -2.23553 0 
-22.0127 42.2905 -2.23116 0 
-21.7129 42.3425 -2.22688 0 
-21.4433 42.452 -2.22572 0 
-21.1837 42.5808 -2.22566 0 
-20.9231 42.7079 -2.2256 0 
-20.6619 42.8335 -2.22554 0 
-20.4 42.9573 -2.22548 0 
-20.1373 43.0798 -2.22542 0 
-19.8737 43.2004 -2.22536 0 
-19.6096 43.3196 -2.22529 0 
-19.3446 43.437 -2.22523 0 
-19.0791 43.5529 -2.22517 0 
-18.8128 43.6672 -2.22511 0 
-18.5458 43.7798 -2.22505 0 
-18.278 43.8906 -2.22498 0 
-18.0098 44.0001 -2.22492 0 
-17.7408 44.1078 -2.22486 0 
-17.4712 44.2138 -2.22479 0 
-17.2009 44.3182 -2.22473 0 
-16.93 44.4209 -2.22467 0 
-16.6585 44.522 -2.2246 0 
-16.3864 44.6214 -2.22454 0 
-16.1137 44.7192 -2.22448 0 
-15.8404 44.8152 -2.22441 0 
-15.5665 44.9097 -2.22435 0 
-15.2922 45.0024 -2.22429 0 
-15.0171 45.0934 -2.22422 0 
-14.7416 45.1828 -2.22416 0 
-14.4656 45.2706 -2.22409 0 
-14.1891 45.3565 -2.22403 0 
-13.912 45.4408 -2.22396 0 
-13.6344 45.5235 -2.2239 0 
-13.3563 45.6044 -2.22383 0 
-13.0777 45.6835 -2.22376 0 
-12.7987 45.761 -2.2237 0 
-12.5192 45.8368 -2.22363 0 
-12.2393 45.9109 -2.22357 0 
-11.9589 45.9833 -2.2235 0 
-11.6781 46.0539 -2.22344 0 
-11.3969 46.1228 -2.22337 0 
-11.1153 46.1901 -2.2233 0 
-10.8333 46.2557 -2.22324 0 
-10.5509 46.3195 -2.22317 0 
-10.2681 46.3815 -2.22311 0 
-9.98494 46.4419 -2.22304 0 
-9.70143 46.5003 -2.22297 0 
-9.41756 46.5573 -2.22291 0 
-9.13338 46.6124 -2.22284 0 
-8.84889 46.6658 -2.22278 0 
-8.5641 46.7175 -2.22271 0 
-8.27898 46.7674 -2.22264 0 
-7.99359 46.8155 -2.22258 0 
-7.70787 46.862 -2.22251 0 
-7.42193 46.9067 -2.22244 0 
-7.1357 46.9497 -2.22238 0 
-6.84922 46.9909 -2.22231 0 
-6.56256 47.0304 -2.22224 0 
-6.27566 47.0681 -2.22217 0 
-5.98848 47.104 -2.22211 0 
-5.70113 47.1381 -2.22204 0 
-5.41365 47.1708 -2.22197 0 
-5.1259 47.2013 -2.22191 0 
-4.83795 47.2302 -2.22184 0 
-4.5499 47.2574 -2.22177 0 
-4.26172 47.2829 -2.2217 0 
-3.97336 47.3066 -2.22164 0 
-3.6849 47.3283 -2.22157 0 
-3.39631 47.3487 -2.2215 0 
-3.10758 47.367 -2.22144 0 
-2.81877 47.3836 -2.22137 0 
-2.52984 47.3984 -2.2213 0 
-2.24092 47.4116 -2.22123 0 
-1.95182 47.4228 -2.22117 0 
-1.66275 47.4324 -2.2211 0 
-1.37361 47.4402 -2.22103 0 
-1.08445 47.4463 -2.22096 0 
-0.795234 47.4506 -2.2209 0 
-0.506016 47.453 -2.22083 0 
-0.216836 47.4539 -2.22076 0 
0.0723633 47.4529 -2.22069 0 
0.361543 47.4501 -2.22063 0 
0.650664 47.4454 -2.22056 0 
0.939766 47.4393 -2.22049 0 
1.22881 47.4312 -2.22042 0 
1.51781 47.4214 -2.22036 0 
1.80676 47.4098 -2.22029 0 
2.09559 47.3966 -2.22022 0 
2.3843 47.3814 -2.22015 0 
2.67289 47.3645 -2.22009 0 
2.96145 47.346 -2.22002 0 
3.24982 47.3257 -2.21995 0 
3.53803 47.3035 -2.21989 0 
3.82617 47.2795 -2.21982 0 
4.11412 47.2541 -2.21975 0 
4.40188 47.2266 -2.21968 0 
4.68943 47.1975 -2.21962 0 
4.97682 47.1666 -2.21955 0 
5.26404 47.134 -2.21948 0 
6.0034 50.9384 -2.4003 0 
6.31355 50.8993 -2.40023 0 
6.62342 50.8585 -2.40016 0 
6.93299 50.8155 -2.40009 0 
7.24232 50.7707 -2.40001 0 
7.55135 50.7241 -2.39994 0 
7.8601 50.6757 -2.39987 0 
8.16855 50.6254 -2.3998 0 
8.47666 50.5731 -2.39973 0 
8.78449 50.5191 -2.39965 0 
9.09188 50.463 -2.39958 0 
9.399 50.4051 -2.39951 0 
9.70568 50.3454 -2.39944 0 
10.012 50.2839 -2.39937 0 
10.318 50.2204 -2.3993 0 
10.6236 50.1551 -2.39922 0 
10.9287 50.0881 -2.39915 0 
11.2333 50.0188 -2.39908 0 
11.5377 49.948 -2.39901 0 
11.8415 49.8755 -2.39894 0 
12.1449 49.8008 -2.39887 0 
12.4478 49.7245 -2.3988 0 
12.7502 49.6462 -2.39873 0 
13.0521 49.5662 -2.39866 0 
13.3536 49.4843 -2.39859 0 
13.6545 49.4005 -2.39852 0 
13.9549 49.3148 -2.39845 0 
14.2547 49.2274 -2.39838 0 
14.4907 48.9244 -2.38788 0 
14.609 48.2422 -2.35888 0 
14.7245 47.5763 -2.33066 0 
14.8373 46.9262 -2.3032 0 
14.9474 46.2912 -2.27646 0 
15.0551 45.6707 -2.25042 0 
15.1602 45.0642 -2.22505 0 
15.3797 44.811 -2.21713 0 
15.652 44.7151 -2.21707 0 
15.9238 44.6177 -2.217 0 
16.1949 44.5185 -2.21694 0 
16.4655 44.4177 -2.21688 0 
16.7354 44.3153 -2.21681 0 
17.0047 44.2113 -2.21675 0 
17.2733 44.1056 -2.21669 0 
17.5413 43.9981 -2.21663 0 
17.8086 43.8893 -2.21656 0 
18.0753 43.7787 -2.2165 0 
18.3412 43.6665 -2.21644 0 
18.6064 43.5527 -2.21638 0 
18.871 43.4373 -2.21632 0 
19.1348 43.3203 -2.21626 0 
19.3979 43.2017 -2.21619 0 
19.6603 43.0814 -2.21613 0 
19.922 42.9598 -2.21607 0 
20.1828 42.8363 -2.21601 0 
20.443 42.7115 -2.21595 0 
20.7022 42.5847 -2.21589 0 
20.9609 42.4568 -2.21583 0 
21.2186 42.3271 -2.21577 0 
21.4756 42.1958 -2.21571 0 
21.7318 42.0631 -2.21565 0 
21.987 41.9286 -2.21559 0 
22.2416 41.7927 -2.21553 0 
22.4953 41.6554 -2.21547 0 
22.7482 41.5164 -2.21541 0 
23.0001 41.3758 -2.21536 0 
23.2513 41.2339 -2.2153 0 
23.5014 41.0903 -2.21524 0 
23.7509 40.9453 -2.21518 0 
23.9993 40.7986 -2.21512 0 
24.2469 40.6506 -2.21507 0 
24.4935 40.501 -2.21501 0 
24.7392 40.3499 -2.21495 0 
24.9841 40.1975 -2.21489 0 
25.2279 40.0434 -2.21484 0 
25.4709 39.8879 -2.21478 0 
25.7128 39.7309 -2.21472 0 
25.9539 39.5726 -2.21467 0 
26.1938 39.4126 -2.21461 0 
26.4328 39.2512 -2.21456 0 
26.6709 39.0884 -2.2145 0 
26.9079 38.9241 -2.21445 0 
27.1439 38.7585 -2.21439 0 
27.379 38.5914 -2.21434 0 
27.613 38.4229 -2.21428 0 
22.6657 31.1367 -1.80231 0 
22.7212 30.8166 -1.79176 0 
22.9895 30.7858 -1.79809 0 
23.3274 30.8444 -1.80977 0 
22.8841 29.878 -1.76122 0 
22.9371 29.5722 -1.7514 0 
22.9895 29.2697 -1.74175 0 
23.2795 29.2699 -1.75018 0 
23.6197 29.3289 -1.76228 0 
29.8947 36.661 -2.21375 0 
30.1169 36.4773 -2.2137 0 
30.3379 36.2923 -2.21365 0 
30.5579 36.1059 -2.2136 0 
30.7765 35.9181 -2.21355 0 
30.9943 35.7291 -2.2135 0 
31.2107 35.5388 -2.21345 0 
23.4846 26.4149 -1.65407 0 
23.5314 26.1449 -1.64611 0 
23.6758 25.9851 -1.6451 0 
24.0227 26.0452 -1.65815 0 
32.2754 34.5675 -2.2132 0 
32.4847 34.3694 -2.21315 0 
32.6928 34.17 -2.2131 0 
32.8997 33.9695 -2.21305 0 
33.1055 33.7677 -2.21301 0 
33.3098 33.5645 -2.21296 0 
33.5131 33.3602 -2.21291 0 
27.8129 27.3507 -1.82549 0 
27.8621 27.0671 -1.81785 0 
27.911 26.7858 -1.81036 0 
24.1027 22.8505 -1.55429 0 
24.1441 22.612 -1.54803 0 
24.1851 22.3753 -1.5419 0 
24.4207 22.3186 -1.54822 0 
24.7932 22.3832 -1.56315 0 
35.2849 31.4669 -2.2125 0 
35.4753 31.2507 -2.21246 0 
35.6645 31.0334 -2.21241 0 
35.9614 30.9087 -2.21911 0 
47.4273 40.2637 -2.91145 0 
47.9205 40.1823 -2.92665 0 
36.8723 30.5375 -2.24049 0 
37.0571 30.3117 -2.24045 0 
37.2405 30.0847 -2.24041 0 
28.5992 22.8172 -1.71215 0 
28.6425 22.5675 -1.70647 0 
28.6855 22.3194 -1.7009 0 
28.7282 22.0729 -1.69543 0 
28.7707 21.828 -1.69005 0 
28.8129 21.5846 -1.68477 0 
28.8549 21.3427 -1.67959 0 
28.8966 21.1024 -1.6745 0 
28.938 20.8634 -1.6695 0 
28.9792 20.6259 -1.66459 0 
29.0201 20.3897 -1.65978 0 
29.0609 20.1549 -1.65505 0 
29.1013 19.9214 -1.65041 0 
27.4092 18.5188 -1.54802 0 
27.4468 18.3016 -1.54381 0 
27.4843 18.0856 -1.53969 0 
27.6737 17.9695 -1.54414 0 
29.8814 19.1452 -1.66079 0 
30.4393 19.242 -1.68524 0 
31.0137 19.3416 -1.71049 0 
31.6057 19.4442 -1.73657 0 
32.216 19.5501 -1.76352 0 
32.8456 19.6593 -1.7914 0 
33.4954 19.772 -1.82023 0 
38.5649 22.4486 -2.08824 0 
38.6124 22.1623 -2.08347 0 
27.8842 15.7796 -1.49937 0 
27.9196 15.5757 -1.49614 0 
27.9548 15.3727 -1.49298 0 
28.2458 15.3093 -1.50351 0 
29.7961 15.9154 -1.58084 0 
29.8331 15.7022 -1.5777 0 
30.1627 15.6418 -1.59006 0 
38.9857 19.9166 -2.04874 0 
39.0315 19.641 -2.04482 0 
33.9704 16.8355 -1.77426 0 
34.0115 16.5985 -1.77109 0 
34.0525 16.3623 -1.768 0 
36.8865 17.4482 -1.90959 0 
36.9305 17.1944 -1.9064 0 
36.9744 16.9414 -1.9033 0 
37.528 16.9191 -1.92646 0 
39.3922 17.4715 -2.01665 0 
39.4365 17.2043 -2.01352 0 
36.982 15.8659 -1.88322 0 
37.025 15.6179 -1.88053 0 
34.4152 14.2706 -1.74353 0 
34.4549 14.0416 -1.74117 0 
34.4945 13.8132 -1.73889 0 
34.871 13.718 -1.75361 0 
37.2383 14.3879 -1.86823 0 
37.2807 14.1437 -1.86599 0 
37.3229 13.9001 -1.86383 0 
37.3651 13.6571 -1.86174 0 
37.4071 13.4146 -1.85974 0 
37.4491 13.1727 -1.8578 0 
37.491 12.9312 -1.85593 0 
37.5328 12.6902 -1.85414 0 
37.5745 12.4497 -1.85241 0 
37.6162 12.2096 -1.85076 0 
37.6577 11.9699 -1.84918 0 
37.6992 11.7306 -1.84768 0 
37.7406 11.4917 -1.84624 0 
37.7821 11.2532 -1.84488 0 
37.8234 11.015 -1.84358 0 
37.8646 10.7771 -1.84236 0 
37.9058 10.5395 -1.8412 0 
39.8716 10.8247 -1.93345 0 
42.7177 11.3183 -2.06807 0 
44.6959 11.5515 -2.1604 0 
44.7442 11.2735 -2.15937 0 
44.7923 10.9958 -2.15842 0 
44.8405 10.7183 -2.15755 0 
44.8886 10.441 -2.15676 0 
44.9366 10.1639 -2.15606 0 
44.9846 9.88697 -2.15543 0 
45.0326 9.61021 -2.15488 0 
45.0806 9.33359 -2.15442 0 
45.1286 9.05707 -2.15403 0 
45.1765 8.78062 -2.15373 0 
42.6459 8.01937 -2.03071 0 
42.6911 7.75881 -2.03058 0 
42.7363 7.49826 -2.03051 0 
42.7815 7.23773 -2.03053 0 
42.8267 6.97719 -2.03062 0 
42.8719 6.7166 -2.03079 0 
42.9171 6.45598 -2.03102 0 
42.9623 6.19527 -2.03133 0 
43.0075 5.93449 -2.03173 0 
43.0528 5.67355 -2.0322 0 
43.098 5.41254 -2.03274 0 
43.1433 5.15133 -2.03336 0 
43.1887 4.89 -2.03405 0 
43.234 4.62846 -2.03482 0 
43.2794 4.36672 -2.03566 0 
43.3249 4.10473 -2.03659 0 
43.3703 3.8425 -2.03759 0 
43.4159 3.58 -2.03866 0 
43.4615 3.31721 -2.03982 0 
43.5071 3.05414 -2.04105 0 
43.5528 2.79072 -2.04236 0 
43.5985 2.52697 -2.04374 0 
43.6443 2.26283 -2.0452 0 
43.6902 1.99832 -2.04675 0 
43.7362 1.7334 -2.04836 0 
43.7822 1.46805 -2.05006 0 
43.8283 1.20223 -2.05184 0 
43.8745 0.935977 -2.0537 0 
43.9207 0.66918 -2.05563 0 
43.9671 0.401914 -2.05765 0 
44.0136 0.134062 -2.05975 0 
44.0601 -0.134297 -2.06192 0 
44.1068 -0.403242 -2.06418 0 
44.1535 -0.672773 -2.06653 0 
44.2004 -0.942969 -2.06895 0 
44.2473 -1.21379 -2.07145 0 
44.2944 -1.48527 -2.07405 0 
44.3416 -1.75746 -2.07672 0 
44.3889 -2.03031 -2.07948 0 
44.4364 -2.30395 -2.08232 0 
44.484 -2.57832 -2.08524 0 
44.5317 -2.85352 -2.08826 0 
44.5796 -3.12947 -2.09136 0 
44.6276 -3.40627 -2.09454 0 
44.6758 -3.68395 -2.09782 0 
44.7241 -3.96246 -2.10118 0 
44.7725 -4.24193 -2.10464 0 
44.8212 -4.52228 -2.10818 0 
44.87 -4.80363 -2.11182 0 
44.9189 -5.08594 -2.11553 0 
44.9681 -5.36926 -2.11935 0 
45.0174 -5.65359 -2.12326 0 
45.0669 -5.93902 -2.12727 0 
45.1166 -6.22551 -2.13136 0 
45.1665 -6.51314 -2.13556 0 
45.2165 -6.80191 -2.13984 0 
45.2668 -7.09186 -2.14423 0 
45.3173 -7.38297 -2.14871 0 
45.368 -7.67535 -2.15329 0 
45.419 -7.96898 -2.15798 0 
45.4701 -8.26391 -2.16276 0 
45.5215 -8.56014 -2.16765 0 
45.5731 -8.85775 -2.17263 0 
45.625 -9.15672 -2.17772 0 
45.6771 -9.45707 -2.18292 0 
46.7375 -9.97406 -2.23646 0 
46.6762 -10.2587 -2.23647 0 
46.613 -10.5431 -2.23649 0 
46.5482 -10.8271 -2.2365 0 
46.4816 -11.1106 -2.23652 0 
46.4136 -11.3938 -2.23654 0 
46.3435 -11.6765 -2.23655 0 
46.2718 -11.9588 -2.23657 0 
46.1985 -12.2407 -2.23659 0 
46.1233 -12.522 -2.23661 0 
46.0466 -12.803 -2.23662 0 
45.9681 -13.0835 -2.23664 0 
45.8879 -13.3635 -2.23666 0 
45.806 -13.643 -2.23668 0 
45.7224 -13.922 -2.2367 0 
45.6371 -14.2006 -2.23672 0 
45.5501 -14.4786 -2.23674 0 
45.4615 -14.756 -2.23676 0 
45.3712 -15.033 -2.23678 0 
45.2792 -15.3093 -2.23681 0 
45.1854 -15.5851 -2.23683 0 
45.09 -15.8604 -2.23685 0 
44.993 -16.135 -2.23687 0 
44.8944 -16.4091 -2.2369 0 
44.794 -16.6826 -2.23692 0 
44.6921 -16.9555 -2.23694 0 
44.5883 -17.2277 -2.23697 0 
44.4829 -17.4992 -2.23699 0 
44.3759 -17.7703 -2.23702 0 
44.2673 -18.0405 -2.23704 0 
44.1571 -18.3102 -2.23707 0 
44.0452 -18.5792 -2.2371 0 
43.9318 -18.8475 -2.23712 0 
43.8165 -19.1151 -2.23715 0 
43.6999 -19.382 -2.23718 0 
43.5814 -19.6482 -2.23721 0 
43.4614 -19.9137 -2.23723 0 
43.3398 -20.1785 -2.23726 0 
43.2165 -20.4424 -2.23729 0 
43.0917 -20.7057 -2.23732 0 
42.9654 -20.9682 -2.23735 0 
42.8373 -21.23 -2.23738 0 
42.7078 -21.4909 -2.23741 0 
42.5766 -21.7511 -2.23744 0 
42.4439 -22.0105 -2.23747 0 
42.3095 -22.269 -2.23751 0 
42.1735 -22.5268 -2.23754 0 
42.0361 -22.7837 -2.23757 0 
41.8972 -23.0398 -2.2376 0 
41.7566 -23.295 -2.23764 0 
41.6144 -23.5495 -2.23767 0 
41.4708 -23.803 -2.2377 0 
41.3256 -24.0556 -2.23774 0 
41.1789 -24.3075 -2.23777 0 
41.0306 -24.5583 -2.23781 0 
40.8808 -24.8083 -2.23784 0 
40.7295 -25.0574 -2.23788 0 
40.5767 -25.3055 -2.23791 0 
40.4223 -25.5528 -2.23795 0 
40.2666 -25.799 -2.23799 0 
40.1092 -26.0444 -2.23802 0 
39.9504 -26.2887 -2.23806 0 
39.7902 -26.5322 -2.2381 0 
39.6284 -26.7746 -2.23814 0 
39.4651 -27.0161 -2.23817 0 
39.3005 -27.2566 -2.23821 0 
39.1343 -27.4961 -2.23825 0 
38.9668 -27.7346 -2.23829 0 
38.7976 -27.972 -2.23833 0 
38.6272 -28.2085 -2.23837 0 
38.4553 -28.4438 -2.23841 0 
38.2818 -28.6781 -2.23845 0 
38.1071 -28.9114 -2.23849 0 
37.8442 -29.0771 -2.23342 0 
37.4732 -29.1569 -2.22197 0 
37.2955 -29.3853 -2.22201 0 
37.1164 -29.6127 -2.22205 0 
36.9361 -29.8389 -2.22209 0 
36.7541 -30.0639 -2.22214 0 
36.571 -30.288 -2.22218 0 
36.3864 -30.5109 -2.22222 0 
36.2005 -30.7327 -2.22227 0 
36.0132 -30.9532 -2.22231 0 
35.8246 -31.1728 -2.22235 0 
35.6348 -31.3912 -2.2224 0 
35.4435 -31.6084 -2.22244 0 
35.2509 -31.8245 -2.22249 0 
35.057 -32.0393 -2.22253 0 
34.8618 -32.253 -2.22258 0 
34.6653 -32.4656 -2.22263 0 
34.4675 -32.677 -2.22267 0 
34.2686 -32.8872 -2.22272 0 
34.0682 -33.096 -2.22277 0 
33.8666 -33.3037 -2.22281 0 
33.6637 -33.5101 -2.22286 0 
33.4595 -33.7154 -2.22291 0 
33.2542 -33.9195 -2.22296 0 
33.0475 -34.1222 -2.223 0 
32.8398 -34.3238 -2.22305 0 
32.6307 -34.524 -2.2231 0 
32.4204 -34.723 -2.22315 0 
32.2089 -34.9207 -2.2232 0 
31.9963 -35.1172 -2.22325 0 
31.7823 -35.3122 -2.2233 0 
31.5672 -35.5061 -2.22335 0 
31.3511 -35.6987 -2.2234 0 
31.1336 -35.8899 -2.22345 0 
30.9149 -36.0798 -2.2235 0 
30.6952 -36.2683 -2.22356 0 
30.4743 -36.4555 -2.22361 0 
30.2523 -36.6414 -2.22366 0 
30.0291 -36.8261 -2.22371 0 
29.8048 -37.0092 -2.22376 0 
29.5795 -37.1911 -2.22382 0 
29.353 -37.3716 -2.22387 0 
29.1252 -37.5504 -2.22391 0 
28.8964 -37.728 -2.22396 0 
28.6666 -37.9043 -2.22402 0 
28.4359 -38.0793 -2.22407 0 
28.2039 -38.2528 -2.22412 0 
27.971 -38.4249 -2.22418 0 
27.7369 -38.5955 -2.22423 0 
27.5019 -38.7649 -2.22429 0 
27.2659 -38.9328 -2.22434 0 
27.0287 -39.0992 -2.2244 0 
26.7907 -39.2642 -2.22445 0 
26.5516 -39.4278 -2.22451 0 
26.3114 -39.5898 -2.22457 0 
26.0704 -39.7504 -2.22462 0 
25.8283 -39.9096 -2.22468 0 
25.5853 -40.0673 -2.22474 0 
25.3413 -40.2236 -2.22479 0 
25.0962 -40.3782 -2.22485 0 
24.8504 -40.5314 -2.22491 0 
24.6036 -40.6832 -2.22497 0 
24.3557 -40.8334 -2.22502 0 
24.1071 -40.9821 -2.22508 0 
23.8576 -41.1294 -2.22514 0 
23.6071 -41.2751 -2.2252 0 
23.3558 -41.4194 -2.22526 0 
23.1034 -41.5619 -2.22532 0 
22.8504 -41.7031 -2.22538 0 
22.5964 -41.8427 -2.22544 0 
22.3416 -41.9807 -2.2255 0 
22.086 -42.1174 -2.22556 0 
21.8295 -42.2521 -2.22562 0 
21.5721 -42.3856 -2.22568 0 
21.314 -42.5174 -2.22574 0 
21.0551 -42.6477 -2.2258 0 
20.7954 -42.7764 -2.22586 0 
20.5348 -42.9035 -2.22592 0 
20.2736 -43.0291 -2.22598 0 
20.0115 -43.1529 -2.22604 0 
19.7487 -43.2754 -2.2261 0 
19.4852 -43.3962 -2.22616 0 
19.2208 -43.5152 -2.22623 0 
18.9558 -43.6327 -2.22629 0 
18.6901 -43.7487 -2.22635 0 
18.4236 -43.863 -2.22641 0 
18.1565 -43.9757 -2.22647 0 
17.8886 -44.0868 -2.22654 0 
17.6201 -44.1962 -2.2266 0 
17.351 -44.3041 -2.22666 0 
17.0811 -44.4102 -2.22673 0 
16.8106 -44.5148 -2.22679 0 
16.5395 -44.6177 -2.22685 0 
16.2677 -44.7189 -2.22692 0 
15.9954 -44.8185 -2.22698 0 
15.7224 -44.9163 -2.22704 0 
15.4489 -45.0127 -2.22711 0 
15.1746 -45.1073 -2.22717 0 
14.8999 -45.2003 -2.22724 0 
14.6245 -45.2914 -2.2273 0 
14.3487 -45.3811 -2.22736 0 
14.0723 -45.4691 -2.22743 0 
13.7953 -45.5553 -2.22749 0 
13.5179 -45.6399 -2.22756 0 
13.2398 -45.7227 -2.22762 0 
12.9613 -45.8038 -2.22769 0 
12.6823 -45.8834 -2.22775 0 
12.4028 -45.9611 -2.22782 0 
12.1228 -46.0372 -2.22788 0 
11.8424 -46.1116 -2.22795 0 
11.5615 -46.1842 -2.22802 0 
11.2802 -46.2553 -2.22808 0 
10.9984 -46.3246 -2.22815 0 
10.7162 -46.392 -2.22821 0 
10.4336 -46.4578 -2.22828 0 
10.1505 -46.5219 -2.22834 0 
9.86715 -46.5843 -2.22841 0 
6.9677 -33.9138 -1.62024 0 
6.75977 -33.9499 -1.61996 0 
6.55184 -33.9859 -1.61975 0 
6.34402 -34.022 -1.6196 0 
6.13621 -34.058 -1.6195 0 
5.9284 -34.0941 -1.61947 0 
5.72059 -34.1301 -1.61949 0 
5.51277 -34.1662 -1.61958 0 
5.30496 -34.2022 -1.61972 0 
5.09703 -34.2383 -1.61993 0 
4.8891 -34.2743 -1.62021 0 
4.68094 -34.3095 -1.62048 0 
4.47281 -34.3456 -1.62087 0 
4.26465 -34.3817 -1.62132 0 
4.05629 -34.4179 -1.62183 0 
3.84781 -34.454 -1.6224 0 
3.63922 -34.4902 -1.62303 0 
3.43043 -34.5264 -1.62372 0 
3.22141 -34.5627 -1.62447 0 
3.01223 -34.599 -1.62529 0 
2.80285 -34.6353 -1.62615 0 
2.59316 -34.6717 -1.62709 0 
2.38332 -34.708 -1.62809 0 
2.97465 -47.5592 -2.23002 0 
2.68486 -47.5779 -2.23009 0 
2.39492 -47.5949 -2.23016 0 
2.10492 -47.6102 -2.23022 0 
1.81475 -47.6234 -2.23029 0 
1.52453 -47.6352 -2.23036 0 
1.23426 -47.645 -2.23043 0 
0.943926 -47.653 -2.23049 0 
0.653516 -47.6594 -2.23056 0 
0.363047 -47.6638 -2.23063 0 
0.0725391 -47.6667 -2.2307 0 
-0.21793 -47.6676 -2.23076 0 
-0.508438 -47.667 -2.23083 0 
-0.798906 -47.6643 -2.2309 0 
-1.08945 -47.6601 -2.23097 0 
-1.37994 -47.6539 -2.23104 0 
-1.67035 -47.6461 -2.2311 0 
-1.96074 -47.6365 -2.23117 0 
-2.25111 -47.6252 -2.23124 0 
-2.54137 -47.612 -2.23131 0 
-2.83154 -47.5969 -2.23137 0 
-3.12168 -47.5803 -2.23144 0 
-3.41164 -47.5618 -2.23151 0 
-3.70156 -47.5417 -2.23158 0 
-3.99141 -47.5199 -2.23166 0 
-4.28103 -47.4963 -2.23173 0 
-4.57055 -47.4706 -2.23179 0 
-4.8599 -47.4433 -2.23186 0 
-5.1491 -47.4143 -2.23193 0 
-5.43809 -47.3834 -2.232 0 
-5.72695 -47.3509 -2.23206 0 
-6.01559 -47.3164 -2.23213 0 
-6.30402 -47.2805 -2.2322 0 
-6.59227 -47.2425 -2.23227 0 
-6.88023 -47.2029 -2.23233 0 
-7.16795 -47.1614 -2.2324 0 
-7.45545 -47.1184 -2.23247 0 
-7.74271 -47.0734 -2.23253 0 
-8.02965 -47.0267 -2.2326 0 
-8.31639 -46.9784 -2.23267 0 
-8.60271 -46.9282 -2.23273 0 
-8.88887 -46.8763 -2.2328 0 
-9.17463 -46.8227 -2.23287 0 
-9.4601 -46.7673 -2.23293 0 
-9.74523 -46.7102 -2.233 0 
-10.03 -46.6514 -2.23307 0 
-10.3145 -46.5908 -2.23313 0 
-10.5985 -46.5284 -2.2332 0 
-10.8822 -46.4643 -2.23327 0 
-11.1655 -46.3986 -2.23333 0 
-11.4483 -46.3308 -2.2334 0 
-11.7308 -46.2618 -2.23346 0 
-12.0129 -46.1907 -2.23353 0 
-12.2945 -46.1179 -2.2336 0 
-12.5758 -46.0437 -2.23366 0 
-12.8564 -45.9673 -2.23373 0 
-13.1367 -45.8895 -2.23379 0 
-13.4166 -45.81 -2.23386 0 
-13.6959 -45.7287 -2.23392 0 
-13.9747 -45.6457 -2.23399 0 
-14.2531 -45.5611 -2.23405 0 
-14.5308 -45.4745 -2.23412 0 
-14.8082 -45.3866 -2.23418 0 
-15.0849 -45.2967 -2.23425 0 
-15.3611 -45.2053 -2.23431 0 
-15.6368 -45.1122 -2.23437 0 
-15.9118 -45.0172 -2.23444 0 
-12.7155 -35.2882 -1.75535 0 
-12.7692 -34.7714 -1.73348 0 
-12.8216 -34.2672 -1.7122 0 
-12.8727 -33.7752 -1.69151 0 
-12.9227 -33.295 -1.67138 0 
-12.9714 -32.8261 -1.65177 0 
-13.0189 -32.3681 -1.63269 0 
-13.0655 -31.9204 -1.61409 0 
-13.1109 -31.4828 -1.59598 0 
-13.1554 -31.0549 -1.57832 0 
-13.1989 -30.6364 -1.56111 0 
-13.2414 -30.227 -1.54433 0 
-13.2831 -29.8261 -1.52796 0 
-13.3238 -29.4337 -1.51199 0 
-13.3638 -29.0493 -1.4964 0 
-13.4029 -28.6729 -1.48119 0 
-13.4412 -28.304 -1.46633 0 
-13.4788 -27.9423 -1.45183 0 
-13.5156 -27.5878 -1.43766 0 
-13.5518 -27.2401 -1.42382 0 
-13.5872 -26.8991 -1.4103 0 
-13.622 -26.5644 -1.39707 0 
-13.6562 -26.236 -1.38415 0 
-13.6896 -25.9135 -1.37152 0 
-13.7226 -25.5968 -1.35916 0 
-13.7549 -25.2859 -1.34707 0 
-13.7866 -24.9804 -1.33525 0 
-13.8178 -24.6801 -1.32367 0 
-13.8485 -24.385 -1.31235 0 
-13.8787 -24.095 -1.30127 0 
-13.9083 -23.8098 -1.29042 0 
-13.9374 -23.5292 -1.27979 0 
-13.9661 -23.2533 -1.26939 0 
-13.9943 -22.9818 -1.2592 0 
-14.0221 -22.7145 -1.24922 0 
-14.0494 -22.4516 -1.23944 0 
-14.0763 -22.1926 -1.22986 0 
-14.0829 -21.9068 -1.21876 0 
-14.0821 -21.6148 -1.20727 0 
-14.0813 -21.3283 -1.19603 0 
-14.0805 -21.047 -1.18505 0 
-14.0797 -20.7709 -1.17431 0 
-14.079 -20.4996 -1.16381 0 
-14.0783 -20.2332 -1.15353 0 
-14.0776 -19.9714 -1.14348 0 
-14.0768 -19.7142 -1.13364 0 
-14.0761 -19.4613 -1.12401 0 
-14.0755 -19.2127 -1.11458 0 
-14.0748 -18.9682 -1.10535 0 
-14.074 -18.7277 -1.09632 0 
-14.0734 -18.4911 -1.08747 0 
-14.0728 -18.2583 -1.0788 0 
-14.0721 -18.0291 -1.07031 0 
-14.0715 -17.8036 -1.06199 0 
-14.0709 -17.5815 -1.05384 0 
-14.0703 -17.3627 -1.04585 0 
-14.0697 -17.1473 -1.03801 0 
-14.0691 -16.935 -1.03034 0 
-14.0685 -16.7259 -1.02281 0 
-14.0679 -16.5198 -1.01543 0 
-14.0673 -16.3166 -1.00819 0 
-14.0668 -16.1163 -1.00109 0 
-14.0662 -15.9188 -0.994133 0 
-14.0657 -15.724 -0.987303 0 
-14.0652 -15.5319 -0.980603 0 
-14.0646 -15.3423 -0.974028 0 
-14.0641 -15.1553 -0.967577 0 
-14.0636 -14.9707 -0.961249 0 
-14.0631 -14.7885 -0.955035 0 
-14.0625 -14.6087 -0.948939 0 
-14.0621 -14.4311 -0.942952 0 
-14.0616 -14.2557 -0.937075 0 
-14.0611 -14.0825 -0.931309 0 
-14.0606 -13.9114 -0.925647 0 
-14.0601 -13.7424 -0.920087 0 
-14.0597 -13.5754 -0.914622 0 
-14.0592 -13.4104 -0.909254 0 
-14.0588 -13.2473 -0.903991 0 
-14.0583 -13.0861 -0.898814 0 
-14.0579 -12.9266 -0.893733 0 
-14.0574 -12.769 -0.888743 0 
-14.057 -12.6131 -0.883839 0 
-14.0566 -12.4589 -0.879021 0 
-14.0562 -12.3064 -0.874286 0 
-14.0557 -12.1555 -0.869638 0 
-14.0553 -12.0062 -0.86507 0 
-14.0549 -11.8585 -0.86058 0 
-14.0545 -11.7122 -0.856168 0 
-14.0541 -11.5675 -0.851831 0 
-14.0537 -11.4242 -0.847572 0 
-14.0533 -11.2824 -0.843385 0 
-14.0529 -11.1419 -0.839272 0 
-14.0525 -11.0028 -0.835229 0 
-14.0521 -10.865 -0.831256 0 
-14.0517 -10.7285 -0.827349 0 
-14.0514 -10.5933 -0.823512 0 
-14.051 -10.4593 -0.819737 0 
-14.0506 -10.3266 -0.816029 0 
-14.0609 -10.2027 -0.812999 0 
-14.242 -10.2022 -0.819859 0 
-14.4262 -10.2017 -0.82687 0 
-14.6135 -10.2011 -0.834027 0 
-14.8041 -10.2006 -0.841346 0 
-14.9982 -10.2001 -0.848824 0 
-15.1957 -10.1996 -0.856467 0 
-15.3969 -10.199 -0.864284 0 
-15.6016 -10.1984 -0.872276 0 
-15.8103 -10.1979 -0.880452 0 
-16.0229 -10.1972 -0.888816 0 
-16.2396 -10.1966 -0.897371 0 
-16.4606 -10.1959 -0.906129 0 
-16.6858 -10.1954 -0.915093 0 
-16.9156 -10.1947 -0.924274 0 
-17.15 -10.194 -0.933668 0 
-17.3894 -10.1934 -0.943295 0 
-17.6336 -10.1927 -0.953162 0 
-17.8831 -10.192 -0.96327 0 
-18.1379 -10.1913 -0.973632 0 
-18.3983 -10.1906 -0.984254 0 
-18.6644 -10.1898 -0.99515 0 
-18.9364 -10.189 -1.00633 0 
-19.2147 -10.1883 -1.0178 0 
-19.4994 -10.1875 -1.02957 0 
-19.7908 -10.1867 -1.04166 0 
-20.0891 -10.1858 -1.05407 0 
-20.3946 -10.185 -1.06683 0 
-20.7077 -10.1841 -1.07993 0 
-21.0285 -10.1832 -1.09341 0 
-21.3574 -10.1823 -1.10726 0 
-21.6948 -10.1814 -1.12152 0 
-22.041 -10.1804 -1.13619 0 
-22.3964 -10.1794 -1.15129 0 
-22.7613 -10.1783 -1.16684 0 
-23.1363 -10.1773 -1.18286 0 
-23.5218 -10.1762 -1.19937 0 
-43.8698 -18.6628 -2.23106 0 
-43.9832 -18.3954 -2.23109 0 
-44.095 -18.1272 -2.23112 0 
-44.2052 -17.8583 -2.23114 0 
-44.3137 -17.5887 -2.23117 0 
-44.4206 -17.3186 -2.23119 0 
-44.5257 -17.0477 -2.23122 0 
-44.6293 -16.7762 -2.23124 0 
-44.7312 -16.5041 -2.23126 0 
-44.8314 -16.2314 -2.23129 0 
-44.93 -15.958 -2.23131 0 
-45.0268 -15.6841 -2.23133 0 
-45.1219 -15.4095 -2.23135 0 
-45.2155 -15.1344 -2.23137 0 
-45.3073 -14.8587 -2.2314 0 
-45.3975 -14.5825 -2.23142 0 
-45.4859 -14.3057 -2.23144 0 
-45.5726 -14.0283 -2.23146 0 
-45.6576 -13.7504 -2.23148 0 
-45.7411 -13.472 -2.23149 0 
-45.8227 -13.1932 -2.23151 0 
-45.9026 -12.9137 -2.23153 0 
-45.9808 -12.6338 -2.23155 0 
-46.0573 -12.3535 -2.23157 0 
-46.132 -12.0727 -2.23158 0 
-46.205 -11.7914 -2.2316 0 
-46.2765 -11.5097 -2.23162 0 
-46.3461 -11.2276 -2.23163 0 
-46.4139 -10.9449 -2.23165 0 
-46.4801 -10.662 -2.23166 0 
-46.5444 -10.3786 -2.23168 0 
-46.6073 -10.0948 -2.23169 0 
-46.6681 -9.81059 -2.23171 0 
-46.7275 -9.52611 -2.23172 0 
-46.7848 -9.24121 -2.23173 0 
-46.8406 -8.956 -2.23175 0 
-46.8945 -8.67041 -2.23176 0 
-46.9468 -8.38451 -2.23177 0 
-46.9972 -8.0983 -2.23178 0 
-47.0458 -7.8118 -2.23179 0 
-47.0929 -7.52496 -2.2318 0 
-47.1382 -7.23787 -2.23181 0 
-47.1814 -6.95045 -2.23182 0 
-47.2232 -6.66285 -2.23183 0 
-47.2632 -6.37496 -2.23184 0 
-47.3012 -6.08682 -2.23185 0 
-47.3378 -5.79848 -2.23186 0 
-25.9973 -3.02375 -1.22482 0 
-25.4253 -2.80029 -1.19707 0 
-25.1258 -2.61242 -1.18218 0 
-24.5376 -2.4002 -1.15378 0 
-23.6171 -2.16492 -1.10986 0 
-23.3578 -1.9977 -1.09709 0 
-22.931 -1.82055 -1.0765 0 
-22.4421 -1.64412 -1.05306 0 
-21.6442 -1.45311 -1.01518 0 
-21.2023 -1.29367 -0.994066 0 
-21.0878 -1.15777 -0.988347 0 
-20.6821 -1.00912 -0.969026 0 
-20.285 -0.86582 -0.95016 0 
-19.9032 -0.728047 -0.932048 0 
-19.2422 -0.586484 -0.900912 0 
-18.9372 -0.461719 -0.886485 0 
-18.8824 -0.345254 -0.883812 0 
-18.9049 -0.23041 -0.88477 0 
-18.9463 -0.11543 -0.886662 0 
-18.988 1.95312e-05 -1.02993 0 
-19.0298 0.116016 -1.03222 0 
-19.0718 0.2325 -1.03456 0 
-19.114 0.349512 -1.03694 0 
-19.1565 0.467109 -1.03938 0 
-19.1991 0.585215 -1.04187 0 
-19.2419 0.703926 -1.0444 0 
-19.285 0.823242 -1.04699 0 
-19.3282 0.943125 -1.04964 0 
-19.3717 1.06361 -1.05233 0 
-19.4154 1.18473 -1.05508 0 
-19.5473 1.31238 -1.06266 0 
-20.3984 1.49447 -1.1094 0 
-20.4448 1.62314 -1.11244 0 
-20.4915 1.75262 -1.11555 0 
-20.5385 1.88279 -1.11871 0 
-20.5857 2.01367 -1.12192 0 
-20.6332 2.14535 -1.1252 0 
-20.681 2.27781 -1.12855 0 
-20.7291 2.41104 -1.13195 0 
-20.7774 2.54508 -1.13542 0 
-20.8261 2.67998 -1.13895 0 
-20.8751 2.81572 -1.14254 0 
-20.9244 2.9523 -1.1462 0 
-20.974 3.0898 -1.14993 0 
-21.0239 3.22816 -1.15373 0 
-21.0741 3.36748 -1.15759 0 
-21.1247 3.5077 -1.16152 0 
-21.1757 3.64895 -1.16552 0 
-21.227 3.79115 -1.1696 0 
-21.2786 3.93432 -1.17374 0 
-21.3306 4.07852 -1.17796 0 
-21.3831 4.22375 -1.18226 0 
-21.4358 4.37008 -1.18662 0 
-21.489 4.5175 -1.19107 0 
-21.5426 4.66604 -1.1956 0 
-21.5966 4.81568 -1.2002 0 
-21.6511 4.96654 -1.20488 0 
-21.7059 5.11855 -1.20965 0 
-21.7612 5.27178 -1.2145 0 
-21.8169 5.42627 -1.21943 0 
-21.8731 5.58199 -1.22445 0 
-21.9298 5.73902 -1.22956 0 
-21.8168 5.85176 -1.2252 0 
-21.5922 5.93277 -1.2146 0 
-21.3714 6.01248 -1.20421 0 
-21.2589 6.1209 -1.19996 0 
-21.2456 6.25748 -1.20134 0 
-21.3026 6.41562 -1.20675 0 
-21.3602 6.57523 -1.21225 0 
-21.4183 6.73627 -1.21786 0 
-21.477 6.89881 -1.22357 0 
-21.5362 7.06289 -1.22937 0 
-21.5959 7.22855 -1.23527 0 
-21.6563 7.39584 -1.24128 0 
-21.7172 7.56477 -1.24739 0 
-21.7788 7.73535 -1.25361 0 
-24.0984 8.72494 -1.39017 0 
-23.9218 8.82629 -1.38305 0 
-23.747 8.92656 -1.37607 0 
-23.6303 9.04744 -1.37247 0 
-23.7526 9.26064 -1.38283 0 
-23.8767 9.47703 -1.39339 0 
-24.0028 9.69682 -1.40417 0 
-24.1308 9.92002 -1.41517 0 
-24.2609 10.1468 -1.42641 0 
-24.393 10.3772 -1.43786 0 
-24.5273 10.6113 -1.44956 0 
-24.6639 10.8493 -1.46151 0 
-24.8026 11.0912 -1.47371 0 
-24.9437 11.3372 -1.48617 0 
-25.0873 11.5875 -1.49891 0 
-25.2333 11.842 -1.51192 0 
-25.3819 12.101 -1.52521 0 
-25.5331 12.3647 -1.5388 0 
-25.687 12.6331 -1.55268 0 
-25.8438 12.9063 -1.56688 0 
-26.0035 13.1846 -1.5814 0 
-36.7053 18.893 -2.23921 0 
-36.5891 19.1161 -2.23918 0 
-36.4715 19.3384 -2.23915 0 
-36.3524 19.56 -2.23912 0 
-36.2322 19.7811 -2.23909 0 
-36.1105 20.0012 -2.23907 0 
-35.9874 20.2207 -2.23904 0 
-35.8631 20.4394 -2.23901 0 
-35.7374 20.6573 -2.23898 0 
-35.6103 20.8744 -2.23895 0 
-35.482 21.0907 -2.23892 0 
-35.3523 21.3062 -2.23889 0 
-21.8461 13.3484 -1.38865 0 
-21.6922 13.4366 -1.38405 0 
-21.5394 13.5243 -1.37953 0 
-21.4059 13.6231 -1.37628 0 
-21.5734 13.9151 -1.39248 0 
-21.745 14.2141 -1.4091 0 
-34.4081 22.7923 -2.23867 0 
-27.7909 18.6536 -1.8155 0 
-23.1426 15.739 -1.51808 0 
-22.9785 15.8331 -1.51362 0 
-22.8154 15.9267 -1.50924 0 
-20.2061 14.2891 -1.34236 0 
-20.0623 14.3716 -1.3386 0 
-19.9192 14.4537 -1.33491 0 
-19.777 14.5352 -1.33129 0 
-19.8114 14.7473 -1.33964 0 
-20.002 15.0794 -1.35871 0 
-32.7985 25.0417 -2.23829 0 
-32.6447 25.2407 -2.23825 0 
-32.4898 25.4389 -2.23822 0 
-21.8918 17.357 -1.51538 0 
-21.7332 17.448 -1.51174 0 
-21.5753 17.5386 -1.50816 0 
-21.4182 17.6287 -1.50466 0 
-21.2618 17.7185 -1.50123 0 
-21.1061 17.8078 -1.49787 0 
-20.9511 17.8967 -1.49458 0 
-20.7967 17.9852 -1.49136 0 
-20.643 18.0734 -1.48821 0 
-20.49 18.1612 -1.48513 0 
-20.3376 18.2486 -1.48212 0 
-20.1858 18.3357 -1.47917 0 
-15.2477 14.0206 -1.12356 0 
-15.133 14.0864 -1.12141 0 
-15.0188 14.152 -1.11932 0 
-14.905 14.2172 -1.11728 0 
-14.7917 14.2822 -1.11528 0 
-14.6787 14.347 -1.11334 0 
-14.884 14.7262 -1.13569 0 
-16.43 16.4551 -1.26129 0 
-16.3029 16.528 -1.25924 0 
-16.1762 16.6007 -1.25724 0 
-16.0499 16.6732 -1.2553 0 
-16.2221 17.059 -1.27688 0 
-18.2615 19.4394 -1.4467 0 
-18.1168 19.5224 -1.44464 0 
-17.9725 19.6052 -1.44263 0 
-17.8286 19.6878 -1.44068 0 
-17.9419 20.0573 -1.4597 0 
-18.3469 20.7632 -1.5029 0 
-18.7765 21.5122 -1.54881 0 
-19.2333 22.3085 -1.59767 0 
-19.7197 23.1566 -1.64978 0 
-22.0744 26.244 -1.86011 0 
-21.8904 26.3496 -1.8581 0 
-21.7067 26.4549 -1.85617 0 
-12.595 15.5423 -1.08509 0 
-12.488 15.6037 -1.08404 0 
-12.3812 15.6649 -1.08304 0 
-12.2745 15.7261 -1.08208 0 
-12.1681 15.7871 -1.08116 0 
-12.1095 15.9107 -1.08454 0 
-13.5903 18.084 -1.22702 0 
-13.4699 18.1531 -1.22611 0 
-13.744 18.7604 -1.26145 0 
-14.8318 20.5062 -1.37273 0 
-17.5245 24.5425 -1.63576 0 
-17.3644 24.6344 -1.63479 0 
-17.2044 24.7261 -1.63389 0 
-19.1688 27.9107 -1.83657 0 
-24.9046 36.7399 -2.40753 0 
-24.6797 36.8902 -2.40748 0 
-24.454 37.0392 -2.40742 0 
-24.2272 37.1866 -2.40737 0 
-23.9997 37.3329 -2.40732 0 
-23.7712 37.4776 -2.40726 0 
-23.5418 37.621 -2.40721 0 
-23.3115 37.7628 -2.40716 0 
-23.0805 37.9033 -2.4071 0 
-22.8486 38.0424 -2.40705 0 
-22.6157 38.1801 -2.40699 0 
-22.3821 38.3163 -2.40694 0 
-22.1477 38.4511 -2.40688 0 
-21.9125 38.5845 -2.40683 0 
-21.6764 38.7165 -2.40677 0 
-21.4396 38.8469 -2.40672 0 
-21.202 38.9761 -2.40666 0 
-20.9636 39.1036 -2.40661 0 
-20.7244 39.2297 -2.40655 0 
-20.4844 39.3543 -2.40649 0 
-20.2438 39.4776 -2.40644 0 
-20.0023 39.5992 -2.40638 0 
-19.7602 39.7195 -2.40632 0 
-19.5173 39.8382 -2.40627 0 
-19.2737 39.9554 -2.40621 0 
-19.0294 40.0712 -2.40615 0 
-18.7844 40.1855 -2.4061 0 
-18.5387 40.2983 -2.40604 0 
-18.2923 40.4096 -2.40598 0 
-18.0453 40.5193 -2.40592 0 
-17.7976 40.6275 -2.40587 0 
-17.5493 40.7343 -2.40581 0 
-17.3003 40.8395 -2.40575 0 
-17.0506 40.9431 -2.40569 0 
-16.8004 41.0453 -2.40563 0 
-16.5495 41.1459 -2.40557 0 
-16.2981 41.245 -2.40552 0 
-16.0461 41.3426 -2.40546 0 
-15.7934 41.4385 -2.4054 0 
-15.5402 41.5331 -2.40534 0 
-15.2864 41.6258 -2.40528 0 
-15.0321 41.7173 -2.40522 0 
-14.7772 41.8071 -2.40516 0 
-14.5218 41.8953 -2.4051 0 
-14.2658 41.982 -2.40504 0 
-14.0094 42.0671 -2.40498 0 
-13.7524 42.1506 -2.40492 0 
-13.4949 42.2326 -2.40486 0 
-13.237 42.3131 -2.4048 0 
-12.9785 42.3918 -2.40474 0 
-12.7196 42.4691 -2.40468 0 
-12.4602 42.5447 -2.40462 0 
-12.2004 42.6187 -2.40456 0 
-11.9402 42.6913 -2.4045 0 
-11.6795 42.7621 -2.40444 0 
-11.4184 42.8314 -2.40438 0 
-11.1569 42.8992 -2.40431 0 
-10.895 42.9652 -2.40425 0 
-10.6326 43.0298 -2.40419 0 
-10.37 43.0927 -2.40413 0 
-10.1068 43.1539 -2.40407 0 
-9.84344 43.2136 -2.40401 0 
-9.57967 43.2718 -2.40395 0 
-9.31549 43.3281 -2.40388 0 
-9.05105 43.383 -2.40382 0 
-8.78629 43.4363 -2.40376 0 
-8.52119 43.4879 -2.4037 0 
-8.25578 43.5379 -2.40364 0 
-7.99014 43.5863 -2.40357 0 
-7.72418 43.6331 -2.40351 0 
-7.45789 43.6781 -2.40345 0 
-7.19139 43.7217 -2.40339 0 
-6.92463 43.7635 -2.40333 0 
-6.6576 43.8038 -2.40326 0 
-6.39035 43.8424 -2.4032 0 
-6.12287 43.8794 -2.40314 0 
-5.85525 43.9148 -2.40308 0 
-5.58734 43.9485 -2.40301 0 
-5.31928 43.9806 -2.40295 0 
-5.05105 44.0111 -2.40289 0 
-4.78258 44.0398 -2.40283 0 
-4.514 44.0671 -2.40276 0 
-4.24521 44.0925 -2.4027 0 
-3.97635 44.1165 -2.40264 0 
-3.70732 44.1387 -2.40257 0 
-3.43818 44.1593 -2.40251 0 
-3.16893 44.1783 -2.40245 0 
-2.89957 44.1956 -2.40239 0 
-2.63008 44.2114 -2.40232 0 
-2.36053 44.2253 -2.40226 0 
-2.09094 44.2378 -2.4022 0 
-1.82123 44.2485 -2.40213 0 
-1.55152 44.2577 -2.40207 0 
-1.2817 44.2651 -2.40201 0 
-1.01193 44.271 -2.40195 0 
-0.742051 44.2752 -2.40188 0 
-0.472227 44.2777 -2.40182 0 
-0.202344 44.2787 -2.40176 0 
0.0674805 44.2779 -2.40169 0 
0.337305 44.2754 -2.40163 0 
0.607129 44.2714 -2.40157 0 
0.876914 44.2658 -2.4015 0 
1.1466 44.2584 -2.40144 0 
1.41625 44.2494 -2.40138 0 
1.68588 44.2389 -2.40132 0 
1.95541 44.2266 -2.40125 0 
2.2248 44.2127 -2.40119 0 
2.4941 44.1971 -2.40113 0 
2.76342 44.18 -2.40107 0 
3.03248 44.1612 -2.401 0 
3.30146 44.1408 -2.40094 0 
3.57033 44.1185 -2.40088 0 
3.83904 44.0948 -2.40081 0 
4.10756 44.0696 -2.40075 0 
4.37594 44.0426 -2.40069 0 
4.64416 44.0138 -2.40063 0 
4.91219 43.9836 -2.40056 0 
5.18 43.9517 -2.4005 0 
5.44762 43.9182 -2.40044 0 
5.715 43.883 -2.40038 0 
5.98219 43.8463 -2.40031 0 
6.2491 43.8078 -2.40025 0 
6.51582 43.7678 -2.40019 0 
6.78225 43.7261 -2.40013 0 
7.04838 43.6829 -2.40007 0 
7.31426 43.638 -2.4 0 
7.5799 43.5915 -2.39994 0 
7.84518 43.5434 -2.39988 0 
8.1102 43.4936 -2.39982 0 
8.37488 43.4423 -2.39976 0 
8.63928 43.3892 -2.3997 0 
8.90328 43.3347 -2.39963 0 
9.16695 43.2786 -2.39957 0 
9.43031 43.2208 -2.39951 0 
9.69332 43.1614 -2.39945 0 
9.9559 43.1005 -2.39939 0 
10.2181 43.0379 -2.39933 0 
10.48 42.9738 -2.39927 0 
10.7414 42.908 -2.39921 0 
11.0024 42.8407 -2.39914 0 
11.263 42.7717 -2.39908 0 
11.5231 42.7012 -2.39902 0 
11.7829 42.6291 -2.39896 0 
12.0421 42.5555 -2.3989 0 
12.301 42.4802 -2.39884 0 
12.5593 42.4034 -2.39878 0 
12.8171 42.325 -2.39872 0 
13.0745 42.2449 -2.39866 0 
13.3314 42.1635 -2.3986 0 
13.5878 42.0804 -2.39854 0 
13.8436 41.9958 -2.39848 0 
14.0989 41.9096 -2.39842 0 
14.3537 41.8219 -2.39836 0 
14.608 41.7326 -2.3983 0 
