//X,Y,Z,ObjIdx
12.55695248,1.26693356,-2.39882612,0.000000
12.56441402,1.19041014,-2.39882445,0.000000
12.57142544,1.11382806,-2.39882278,0.000000
12.57794857,1.03716791,-2.39882159,0.000000
12.58402348,0.96046871,-2.39882016,0.000000
12.58964825,0.88378906,-2.39881897,0.000000
12.59478474,0.80703121,-2.39881778,0.000000
12.59945297,0.73023438,-2.39881682,0.000000
12.60365200,0.65345705,-2.39881587,0.000000
12.60744095,0.57664061,-2.39881516,0.000000
12.61068344,0.49980468,-2.39881444,0.000000
12.61351490,0.42292967,-2.39881372,0.000000
12.61589813,0.34607422,-2.39881325,0.000000
12.61773396,0.26921874,-2.39881301,0.000000
12.61912060,0.19226561,-2.39881277,0.000000
12.62007809,0.11535156,-2.39881277,0.000000
12.62052727,0.03843750,-2.39881253,0.000000
12.62050724,-0.03845703,-2.39881277,0.000000
12.62003899,-0.11539062,-2.39881277,0.000000
12.61912060,-0.19226561,-2.39881301,0.000000
12.61771488,-0.26917967,-2.39881349,0.000000
12.61585903,-0.34607422,-2.39881396,0.000000
12.61353493,-0.42292967,-2.39881468,0.000000
12.61072254,-0.49984375,-2.39881539,0.000000
12.60744095,-0.57662106,-2.39881635,0.000000
12.60369110,-0.65343750,-2.39881730,0.000000
12.59947205,-0.73027343,-2.39881825,0.000000
12.59482384,-0.80701172,-2.39881945,0.000000
12.58962822,-0.88378906,-2.39882064,0.000000
12.58402348,-0.96050781,-2.39882207,0.000000
12.57794857,-1.03718746,-2.39882374,0.000000
12.57142544,-1.11382806,-2.39882541,0.000000
12.56439400,-1.19039059,-2.39882708,0.000000
12.55691338,-1.26691401,-2.39882874,0.000000
12.54896450,-1.34345698,-2.39883065,0.000000
12.54058552,-1.41988277,-2.39883280,0.000000
12.53169918,-1.49630857,-2.39883494,0.000000
12.52234364,-1.57267570,-2.39883733,0.000000
12.51253891,-1.64894533,-2.39883947,0.000000
12.50228500,-1.72517574,-2.39884210,0.000000
12.49158192,-1.80132806,-2.39884448,0.000000
12.48035145,-1.87742186,-2.39884734,0.000000
12.46867180,-1.95347655,-2.39884996,0.000000
12.45660114,-2.02937484,-2.39885283,0.000000
12.44396496,-2.10527349,-2.39885592,0.000000
12.43093681,-2.18109369,-2.39885926,0.000000
12.41744137,-2.25679684,-2.39886236,0.000000
12.40345669,-2.33242178,-2.39886570,0.000000
12.38906193,-2.40796876,-2.39886904,0.000000
12.37417984,-2.48343754,-2.39887285,0.000000
12.35882759,-2.55882812,-2.39887643,0.000000
12.34300709,-2.63406253,-2.39888000,0.000000
12.32675743,-2.70927739,-2.39888406,0.000000
12.31001949,-2.78433585,-2.39888811,0.000000
12.29285145,-2.85929680,-2.39889216,0.000000
12.27521420,-2.93415999,-2.39889622,0.000000
12.25714779,-3.00894523,-2.39890051,0.000000
12.23859310,-3.08355451,-2.39890504,0.000000
12.21958923,-3.15810537,-2.39890933,0.000000
12.20017529,-3.23249984,-2.39891410,0.000000
12.18027306,-3.30683589,-2.39891887,0.000000
12.15990162,-3.38101554,-2.39892364,0.000000
12.13908195,-3.45503902,-2.39892864,0.000000
12.11783218,-3.52898431,-2.39893365,0.000000
12.09613228,-3.60273433,-2.39893889,0.000000
12.07398415,-3.67642570,-2.39894414,0.000000
12.05136681,-3.74994135,-2.39894938,0.000000
12.02832031,-3.82335925,-2.39895487,0.000000
12.00482368,-3.89658189,-2.39896035,0.000000
11.98085880,-3.96964836,-2.39896607,0.000000
11.95650387,-4.04261732,-2.39897180,0.000000
11.93165970,-4.11539030,-2.39897776,0.000000
11.90640640,-4.18804693,-2.39898372,0.000000
11.88070297,-4.26058578,-2.39898992,0.000000
11.85453129,-4.33289051,-2.39899588,0.000000
11.82790947,-4.40505838,-2.39900208,0.000000
11.80089855,-4.47707033,-2.39900851,0.000000
11.77341747,-4.54894543,-2.39901519,0.000000
11.74552727,-4.62062502,-2.39902163,0.000000
11.71718693,-4.69210911,-2.39902830,0.000000
11.68841743,-4.76345682,-2.39903522,0.000000
11.65917969,-4.83458996,-2.39904189,0.000000
11.62951183,-4.90558577,-2.39904904,0.000000
11.59947205,-4.97638655,-2.39905620,0.000000
11.56892586,-5.04699230,-2.39906335,0.000000
11.53802681,-5.11742163,-2.39907074,0.000000
11.50664043,-5.18763638,-2.39907789,0.000000
11.47486305,-5.25769520,-2.39908552,0.000000
11.44263649,-5.32751942,-2.39909315,0.000000
11.40997982,-5.39722633,-2.39910078,0.000000
11.37691402,-5.46664047,-2.39910841,0.000000
11.34341812,-5.53587866,-2.39911652,0.000000
11.30953121,-5.60492182,-2.39912438,0.000000
11.27517509,-5.67378902,-2.39913249,0.000000
11.24044895,-5.74242163,-2.39914083,0.000000
11.20529270,-5.81082010,-2.39914894,0.000000
11.16966724,-5.87906218,-2.39915729,0.000000
11.13371086,-5.94703102,-2.39916587,0.000000
11.09730434,-6.01476526,-2.39917445,0.000000
11.06044865,-6.08230448,-2.39918303,0.000000
11.02324200,-6.14960909,-2.39919186,0.000000
10.98560524,-6.21667957,-2.39920044,0.000000
10.94755840,-6.28355455,-2.39920950,0.000000
10.90906239,-6.35021448,-2.39921880,0.000000
10.87023449,-6.41658211,-2.39922762,0.000000
10.83099556,-6.48273420,-2.39923692,0.000000
10.79132748,-6.54863262,-2.39924622,0.000000
10.75121117,-6.61433601,-2.39925575,0.000000
10.71074200,-6.67976570,-2.39926529,0.000000
10.66990185,-6.74492168,-2.39927483,0.000000
10.62867165,-6.80986309,-2.39928460,0.000000
10.58697224,-6.87449217,-2.39929438,0.000000
10.54494095,-6.93894529,-2.39930439,0.000000
10.50251961,-7.00308561,-2.39931417,0.000000
10.45970726,-7.06699181,-2.39932418,0.000000
10.41646481,-7.13066387,-2.39933443,0.000000
10.37285137,-7.19406223,-2.39934468,0.000000
10.32888603,-7.25714827,-2.39935493,0.000000
10.28447247,-7.31999969,-2.39936543,0.000000
10.23972607,-7.38257790,-2.39937592,0.000000
10.19460869,-7.44484377,-2.39938664,0.000000
10.14908218,-7.50685549,-2.39939713,0.000000
10.10316372,-7.56863260,-2.39940786,0.000000
10.05691338,-7.63007784,-2.39941883,0.000000
10.01029301,-7.69124985,-2.39942980,0.000000
9.96328068,-7.75214815,-2.39944077,0.000000
9.91585922,-7.81275368,-2.39945173,0.000000
9.86814404,-7.87308598,-2.39946318,0.000000
9.81999969,-7.93314457,-2.39947438,0.000000
9.77154255,-7.99287081,-2.39948583,0.000000
9.72269535,-8.05230427,-2.39949727,0.000000
9.67349625,-8.11144543,-2.39950871,0.000000
9.62388611,-8.17031193,-2.39952040,0.000000
9.57400322,-8.22882748,-2.39953208,0.000000
9.52371025,-8.28707027,-2.39954376,0.000000
9.47306633,-8.34500027,-2.39955568,0.000000
9.42207050,-8.40261745,-2.39956760,0.000000
9.37076187,-8.45992184,-2.39957976,0.000000
9.31910133,-8.51689434,-2.39959192,0.000000
9.26706982,-8.57359314,-2.39960408,0.000000
9.21468735,-8.62996101,-2.39961624,0.000000
9.16193295,-8.68597603,-2.39962864,0.000000
9.10888672,-8.74171829,-2.39964128,0.000000
9.05550766,-8.79710960,-2.39965367,0.000000
9.00175762,-8.85218716,-2.39966631,0.000000
8.94769478,-8.90691376,-2.39967895,0.000000
8.89328098,-8.96132755,-2.39969182,0.000000
8.83859348,-9.01539040,-2.39970446,0.000000
8.78349590,-9.06914043,-2.39971733,0.000000
8.72812462,-9.12253857,-2.39973044,0.000000
8.67240238,-9.17558575,-2.39974356,0.000000
8.61638641,-9.22835922,-2.39975667,0.000000
8.56005859,-9.28078079,-2.39976978,0.000000
8.50339794,-9.33277321,-2.39978313,0.000000
8.44640636,-9.38449192,-2.39979649,0.000000
8.38906193,-9.43585873,-2.39980984,0.000000
8.33146477,-9.48685551,-2.39982343,0.000000
8.27353477,-9.53751945,-2.39983678,0.000000
8.21531200,-9.58781242,-2.39985061,0.000000
8.15679646,-9.63773441,-2.39986420,0.000000
8.09792995,-9.68734360,-2.39987803,0.000000
8.03878880,-9.73656273,-2.39989185,0.000000
7.97937489,-9.78542900,-2.39990568,0.000000
7.91960907,-9.83394527,-2.39991975,0.000000
7.85957003,-9.88205051,-2.39993382,0.000000
7.79927731,-9.92984390,-2.39994812,0.000000
7.73863268,-9.97726536,-2.39996219,0.000000
7.67773438,-10.02429676,-2.39997649,0.000000
7.61654282,-10.07093716,-2.39999080,0.000000
7.55507803,-10.11726570,-2.40000510,0.000000
7.49331999,-10.16318321,-2.40001965,0.000000
7.43128872,-10.20871067,-2.40003419,0.000000
7.36896467,-10.25386715,-2.40004873,0.000000
7.30642557,-10.29867172,-2.40006328,0.000000
7.24355459,-10.34304619,-2.40007806,0.000000
7.18040991,-10.38705063,-2.40009284,0.000000
7.11703110,-10.43066406,-2.40010762,0.000000
7.05337858,-10.47394466,-2.40012240,0.000000
6.98949194,-10.51677704,-2.40013742,0.000000
6.92529297,-10.55921841,-2.40015244,0.000000
6.86083984,-10.60132790,-2.40016770,0.000000
6.79615211,-10.64300728,-2.40018272,0.000000
6.73124981,-10.68429661,-2.40019774,0.000000
6.66601563,-10.72519493,-2.40021300,0.000000
6.60060549,-10.76566410,-2.40022850,0.000000
6.53490210,-10.80578136,-2.40024376,0.000000
6.46894503,-10.84546852,-2.40025926,0.000000
6.40283203,-10.88476563,-2.40027475,0.000000
6.33636713,-10.92363262,-2.40029025,0.000000
6.26972628,-10.96214867,-2.40030599,0.000000
6.20285130,-11.00019550,-2.40032148,0.000000
6.13572264,-11.03789043,-2.40033722,0.000000
6.06839848,-11.07511711,-2.40035295,0.000000
6.00082016,-11.11199188,-2.40036869,0.000000
5.93302727,-11.14843750,-2.40038466,0.000000
5.86501932,-11.18443298,-2.40040040,0.000000
5.79683590,-11.22005844,-2.40041661,0.000000
5.72835922,-11.25523376,-2.40043259,0.000000
5.65970707,-11.29003906,-2.40044856,0.000000
5.59083986,-11.32441425,-2.40046477,0.000000
5.52173805,-11.35832024,-2.40048075,0.000000
5.45244122,-11.39185524,-2.40049696,0.000000
5.38294888,-11.42492199,-2.40051317,0.000000
5.31328106,-11.45761681,-2.40052962,0.000000
5.24337864,-11.48984337,-2.40054584,0.000000
5.17328119,-11.52167988,-2.40056229,0.000000
5.10300779,-11.55306625,-2.40057874,0.000000
5.03257799,-11.58402348,-2.40059519,0.000000
4.96193361,-11.61456966,-2.40061164,0.000000
4.89107418,-11.64466763,-2.40062833,0.000000
4.81999969,-11.67433548,-2.40064478,0.000000
4.74886703,-11.70357418,-2.40066147,0.000000
4.67748022,-11.73238277,-2.40067816,0.000000
4.60591793,-11.76076126,-2.40069485,0.000000
4.53417969,-11.78869152,-2.40071154,0.000000
4.46228504,-11.81617165,-2.40072846,0.000000
4.39017582,-11.84322262,-2.40074539,0.000000
4.31800795,-11.86984348,-2.40076208,0.000000
4.24560547,-11.89603519,-2.40077901,0.000000
4.17304659,-11.92177677,-2.40079594,0.000000
4.10033178,-11.94707012,-2.40081310,0.000000
4.02748060,-11.97191334,-2.40083003,0.000000
3.95449209,-11.99630833,-2.40084720,0.000000
3.88134766,-12.02027321,-2.40086412,0.000000
3.80804682,-12.04378891,-2.40088129,0.000000
3.73457026,-12.06687450,-2.40089846,0.000000
3.66101551,-12.08949184,-2.40091562,0.000000
3.58728504,-12.11167908,-2.40093279,0.000000
3.51343751,-12.13339806,-2.40095019,0.000000
3.43945313,-12.15468693,-2.40096760,0.000000
3.36531234,-12.17550755,-2.40098476,0.000000
3.29111314,-12.19585896,-2.40100217,0.000000
3.21673822,-12.21578121,-2.40101933,0.000000
3.14224601,-12.23523426,-2.40103674,0.000000
3.06765628,-12.25425720,-2.40105438,0.000000
2.99294925,-12.27283192,-2.40107179,0.000000
2.91812491,-12.29093742,-2.40108919,0.000000
2.84318352,-12.30857372,-2.40110660,0.000000
2.76814437,-12.32576180,-2.40112424,0.000000
2.69298816,-12.34249973,-2.40114164,0.000000
2.61775374,-12.35874939,-2.40115929,0.000000
2.54240227,-12.37456989,-2.40117693,0.000000
2.46693349,-12.38992119,-2.40119457,0.000000
2.39144516,-12.40484333,-2.40121222,0.000000
2.31582022,-12.41925716,-2.40122986,0.000000
2.24005866,-12.43320274,-2.40124750,0.000000
2.16425776,-12.44675732,-2.40126514,0.000000
2.08839846,-12.45978451,-2.40128279,0.000000
2.01240230,-12.47238255,-2.40130067,0.000000
1.93642569,-12.48449230,-2.40131855,0.000000
1.86031246,-12.49617195,-2.40133619,0.000000
1.78410149,-12.50734329,-2.40135407,0.000000
1.70787108,-12.51808548,-2.40137196,0.000000
1.63158202,-12.52837849,-2.40138960,0.000000
1.55521476,-12.53816414,-2.40140748,0.000000
1.47878897,-12.54749966,-2.40142536,0.000000
1.40230465,-12.55636692,-2.40144300,0.000000
1.32572258,-12.56478500,-2.40146089,0.000000
1.24916017,-12.57273388,-2.40147877,0.000000
1.17253900,-12.58019543,-2.40149665,0.000000
1.09585941,-12.58722591,-2.40151477,0.000000
1.01914060,-12.59372997,-2.40153265,0.000000
0.94236326,-12.59982395,-2.40155029,0.000000
0.86554688,-12.60542965,-2.40156841,0.000000
0.78874999,-12.61054707,-2.40158629,0.000000
0.71189451,-12.61523438,-2.40160418,0.000000
0.63501954,-12.61941338,-2.40162230,0.000000
0.55806637,-12.62314415,-2.40164018,0.000000
0.48115233,-12.62640572,-2.40165806,0.000000
0.40419921,-12.62921810,-2.40167618,0.000000
0.32720703,-12.63152313,-2.40169406,0.000000
0.25021484,-12.63335896,-2.40171194,0.000000
0.17322265,-12.63476563,-2.40173006,0.000000
0.09621093,-12.63570309,-2.40174794,0.000000
0.01921875,-12.63611317,-2.40176582,0.000000
-0.05779297,-12.63609314,-2.40178394,0.000000
-0.13476563,-12.63562489,-2.40180182,0.000000
-0.21177734,-12.63464832,-2.40181971,0.000000
-0.28878906,-12.63320255,-2.40183783,0.000000
-0.36580077,-12.63132763,-2.40185571,0.000000
-0.44277343,-12.62894535,-2.40187359,0.000000
-0.51968747,-12.62613297,-2.40189147,0.000000
-0.59666014,-12.62279224,-2.40190959,0.000000
-0.67359376,-12.61902332,-2.40192747,0.000000
-0.75046873,-12.61478519,-2.40194535,0.000000
-0.82734370,-12.61007786,-2.40196323,0.000000
-0.90416014,-12.60488224,-2.40198135,0.000000
-0.98099607,-12.59921837,-2.40199924,0.000000
-1.05777347,-12.59312439,-2.40201712,0.000000
-1.13447261,-12.58652306,-2.40203500,0.000000
-1.21115232,-12.57949162,-2.40205288,0.000000
-1.28783202,-12.57195282,-2.40207076,0.000000
-1.36441398,-12.56396484,-2.40208864,0.000000
-1.44099605,-12.55552673,-2.40210652,0.000000
-1.51749992,-12.54660130,-2.40212417,0.000000
-1.59390616,-12.53718758,-2.40214205,0.000000
-1.67031240,-12.52736282,-2.40215993,0.000000
-1.74666011,-12.51706982,-2.40217757,0.000000
-1.82289064,-12.50624943,-2.40219545,0.000000
-1.89908195,-12.49499989,-2.40221334,0.000000
-1.97525382,-12.48332024,-2.40223098,0.000000
-2.05132818,-12.47111320,-2.40224886,0.000000
-2.12728500,-12.45845699,-2.40226650,0.000000
-2.20316410,-12.44535160,-2.40228415,0.000000
-2.27896476,-12.43179703,-2.40230179,0.000000
-2.35470700,-12.41773415,-2.40231943,0.000000
-2.43039060,-12.40328121,-2.40233707,0.000000
-2.50591803,-12.38831997,-2.40235472,0.000000
-2.58140612,-12.37292957,-2.40237212,0.000000
-2.65679693,-12.35705090,-2.40239000,0.000000
-2.73205066,-12.34072208,-2.40240741,0.000000
-2.80720687,-12.32394505,-2.40242481,0.000000
-2.88228512,-12.30667973,-2.40244246,0.000000
-2.95730472,-12.28898430,-2.40245986,0.000000
-3.03214836,-12.27078056,-2.40247726,0.000000
-3.10687494,-12.25218678,-2.40249467,0.000000
-3.18150377,-12.23312473,-2.40251207,0.000000
-3.25603509,-12.21359348,-2.40252948,0.000000
-3.33042955,-12.19363213,-2.40254688,0.000000
-3.40466785,-12.17318344,-2.40256429,0.000000
-3.47882795,-12.15226555,-2.40258145,0.000000
-3.55287099,-12.13093758,-2.40259862,0.000000
-3.62677717,-12.10917950,-2.40261602,0.000000
-3.70050764,-12.08695316,-2.40263295,0.000000
-3.77410150,-12.06425762,-2.40265036,0.000000
-3.84761715,-12.04111290,-2.40266728,0.000000
-3.92091799,-12.01749992,-2.40268445,0.000000
-3.99416018,-11.99347591,-2.40270162,0.000000
-4.06718731,-11.96902275,-2.40271854,0.000000
-4.14007807,-11.94406223,-2.40273547,0.000000
-4.21283197,-11.91867161,-2.40275240,0.000000
-4.28539038,-11.89285088,-2.40276933,0.000000
-4.35781240,-11.86664009,-2.40278625,0.000000
-4.43011713,-11.83992195,-2.40280294,0.000000
-4.50220680,-11.81279278,-2.40281987,0.000000
-4.57416010,-11.78523445,-2.40283656,0.000000
-4.64595699,-11.75722599,-2.40285325,0.000000
-4.71751928,-11.72874928,-2.40286994,0.000000
-4.78892565,-11.69986343,-2.40288663,0.000000
-4.86017561,-11.67054653,-2.40290332,0.000000
-4.93126965,-11.64080048,-2.40291977,0.000000
-5.00214815,-11.61060524,-2.40293622,0.000000
-5.07287121,-11.57999992,-2.40295267,0.000000
-5.14333963,-11.54896450,-2.40296912,0.000000
-5.21365213,-11.51746082,-2.40298557,0.000000
-5.28380871,-11.48554707,-2.40300179,0.000000
-5.35373020,-11.45322227,-2.40301824,0.000000
-5.42347622,-11.42046833,-2.40303421,0.000000
-5.49298811,-11.38726521,-2.40305042,0.000000
-5.56234360,-11.35367203,-2.40306664,0.000000
-5.63146448,-11.31962872,-2.40308261,0.000000
-5.70035124,-11.28515625,-2.40309858,0.000000
-5.76910162,-11.25031185,-2.40311480,0.000000
-5.83757782,-11.21501923,-2.40313077,0.000000
-5.90587854,-11.17929649,-2.40314651,0.000000
-5.97392559,-11.14316368,-2.40316248,0.000000
-6.04173803,-11.10664082,-2.40317822,0.000000
-6.10939455,-11.06966782,-2.40319395,0.000000
-6.17675781,-11.03234386,-2.40320969,0.000000
-6.24390602,-10.99453068,-2.40322518,0.000000
-6.31082010,-10.95634747,-2.40324068,0.000000
-6.37753916,-10.91773415,-2.40325642,0.000000
-6.44402313,-10.87878895,-2.40327191,0.000000
-6.51025391,-10.83933544,-2.40328741,0.000000
-6.57621098,-10.79953098,-2.40330267,0.000000
-6.64195299,-10.75933552,-2.40331793,0.000000
-6.70746088,-10.71875000,-2.40333319,0.000000
-6.77267551,-10.67769527,-2.40334845,0.000000
-6.83767557,-10.63628864,-2.40336347,0.000000
-6.90242195,-10.59453106,-2.40337849,0.000000
-6.96689415,-10.55232430,-2.40339351,0.000000
-7.03107405,-10.50970650,-2.40340853,0.000000
-7.09503889,-10.46675777,-2.40342331,0.000000
-7.15873051,-10.42335892,-2.40343809,0.000000
-7.22220707,-10.37962914,-2.40345287,0.000000
-7.28535128,-10.33546829,-2.40346742,0.000000
-7.34826136,-10.29097652,-2.40348220,0.000000
-7.41087866,-10.24605465,-2.40349674,0.000000
-7.47322226,-10.20074177,-2.40351105,0.000000
-7.53531218,-10.15509701,-2.40352559,0.000000
-7.59708977,-10.10902309,-2.40353990,0.000000
-7.65859365,-10.06259727,-2.40355444,0.000000
-7.71980429,-10.01580048,-2.40356851,0.000000
-7.78074217,-9.96863270,-2.40358281,0.000000
-7.84144497,-9.92109394,-2.40359664,0.000000
-7.90177727,-9.87318325,-2.40361071,0.000000
-7.96183586,-9.82490253,-2.40362477,0.000000
-8.02162075,-9.77624989,-2.40363860,0.000000
-8.08111286,-9.72722626,-2.40365243,0.000000
-8.14029312,-9.67785168,-2.40366626,0.000000
-8.19914055,-9.62812519,-2.40367985,0.000000
-8.25771427,-9.57802677,-2.40369344,0.000000
-8.31601524,-9.52755833,-2.40370703,0.000000
-8.37392521,-9.47679710,-2.40372038,0.000000
-8.43156242,-9.42560482,-2.40373397,0.000000
-8.48894501,-9.37410164,-2.40374732,0.000000
-8.54593754,-9.32226563,-2.40376043,0.000000
-8.60265636,-9.27005863,-2.40377378,0.000000
-8.65900326,-9.21749973,-2.40378690,0.000000
-8.71507835,-9.16460896,-2.40379977,0.000000
-8.77081966,-9.11138630,-2.40381289,0.000000
-8.82625008,-9.05781269,-2.40382552,0.000000
-8.88132763,-9.00390625,-2.40383840,0.000000
-8.93605423,-8.94964790,-2.40385103,0.000000
-8.99050808,-8.89507771,-2.40386367,0.000000
-9.04459000,-8.84017563,-2.40387630,0.000000
-9.09834003,-8.78494167,-2.40388870,0.000000
-9.15171814,-8.72937489,-2.40390110,0.000000
-9.20482445,-8.67347622,-2.40391350,0.000000
-9.25755882,-8.61728477,-2.40392566,0.000000
-9.30994129,-8.56072235,-2.40393782,0.000000
-9.36197281,-8.50386715,-2.40394998,0.000000
-9.41369152,-8.44671822,-2.40396214,0.000000
-9.46501923,-8.38921833,-2.40397406,0.000000
-9.51603508,-8.33144474,-2.40398574,0.000000
-9.56669903,-8.27332020,-2.40399766,0.000000
-9.61697197,-8.21488285,-2.40400910,0.000000
-9.66687489,-8.15619087,-2.40402079,0.000000
-9.71644497,-8.09716797,-2.40403223,0.000000
-9.76568317,-8.03785133,-2.40404367,0.000000
-9.81455040,-7.97822237,-2.40405512,0.000000
-9.86302757,-7.91832018,-2.40406632,0.000000
-9.91111279,-7.85804653,-2.40407729,0.000000
-9.95888615,-7.79755831,-2.40408850,0.000000
-10.00624943,-7.73673820,-2.40409946,0.000000
-10.05326176,-7.67566395,-2.40411043,0.000000
-10.09996033,-7.61429691,-2.40412116,0.000000
-10.14619160,-7.55263662,-2.40413213,0.000000
-10.19207001,-7.49070311,-2.40414262,0.000000
-10.23755836,-7.42847633,-2.40415311,0.000000
-10.28267574,-7.36595678,-2.40416360,0.000000
-10.32740211,-7.30318356,-2.40417409,0.000000
-10.37175751,-7.24013662,-2.40418410,0.000000
-10.41578102,-7.17683601,-2.40419436,0.000000
-10.45937443,-7.11328125,-2.40420461,0.000000
-10.50255871,-7.04941368,-2.40421462,0.000000
-10.54533195,-6.98531246,-2.40422440,0.000000
-10.58775330,-6.92093754,-2.40423417,0.000000
-10.62978458,-6.85630846,-2.40424395,0.000000
-10.67140579,-6.79144526,-2.40425372,0.000000
-10.71269512,-6.72628880,-2.40426326,0.000000
-10.75351524,-6.66093731,-2.40427279,0.000000
-10.79392529,-6.59529305,-2.40428209,0.000000
-10.83396435,-6.52941370,-2.40429139,0.000000
-10.87359333,-6.46328115,-2.40430045,0.000000
-10.91283226,-6.39695311,-2.40430975,0.000000
-10.95166016,-6.33035135,-2.40431857,0.000000
-10.99007797,-6.26351547,-2.40432739,0.000000
-11.02808571,-6.19642544,-2.40433621,0.000000
-11.06568336,-6.12912083,-2.40434504,0.000000
-11.10285091,-6.06160164,-2.40435362,0.000000
-11.13960934,-5.99386692,-2.40436220,0.000000
-11.17597675,-5.92587900,-2.40437055,0.000000
-11.21193314,-5.85765600,-2.40437865,0.000000
-11.24746037,-5.78925753,-2.40438700,0.000000
-11.28257751,-5.72062492,-2.40439510,0.000000
-11.31726551,-5.65175772,-2.40440321,0.000000
-11.35156250,-5.58271456,-2.40441108,0.000000
-11.38539028,-5.51347637,-2.40441895,0.000000
-11.41880798,-5.44398403,-2.40442657,0.000000
-11.45183563,-5.37433577,-2.40443420,0.000000
-11.48437500,-5.30443335,-2.40444183,0.000000
-11.51654243,-5.23437500,-2.40444922,0.000000
-11.54822254,-5.16410160,-2.40445662,0.000000
-11.57953072,-5.09367180,-2.40446377,0.000000
-11.61040974,-5.02298832,-2.40447092,0.000000
-11.64082050,-4.95214844,-2.40447783,0.000000
-11.67085934,-4.88113260,-2.40448475,0.000000
-11.70040989,-4.80996084,-2.40449166,0.000000
-11.72953129,-4.73859358,-2.40449834,0.000000
-11.75826168,-4.66703129,-2.40450501,0.000000
-11.78644466,-4.59527349,-2.40451145,0.000000
-11.81429672,-4.52337885,-2.40451789,0.000000
-11.84165955,-4.45128918,-2.40452409,0.000000
-11.86865234,-4.37906218,-2.40453053,0.000000
-11.89511681,-4.30664063,-2.40453649,0.000000
-11.92117119,-4.23410130,-2.40454245,0.000000
-11.94681644,-4.16138649,-2.40454841,0.000000
-11.97195244,-4.08849621,-2.40455413,0.000000
-11.99667931,-4.01546860,-2.40455985,0.000000
-12.02091789,-3.94230461,-2.40456557,0.000000
-12.04476547,-3.86898422,-2.40457106,0.000000
-12.06814384,-3.79550767,-2.40457630,0.000000
-12.09107399,-3.72189450,-2.40458155,0.000000
-12.11353493,-3.64812493,-2.40458679,0.000000
-12.13560486,-3.57427716,-2.40459204,0.000000
-12.15718746,-3.50023437,-2.40459681,0.000000
-12.17831993,-3.42613268,-2.40460157,0.000000
-12.19896412,-3.35183597,-2.40460634,0.000000
-12.21921825,-3.27744126,-2.40461111,0.000000
-12.23894501,-3.20292950,-2.40461564,0.000000
-12.25833988,-3.12830067,-2.40461993,0.000000
-12.27714825,-3.05351567,-2.40462422,0.000000
-12.29554653,-2.97865224,-2.40462852,0.000000
-12.31353474,-2.90365219,-2.40463257,0.000000
-12.33097649,-2.82857418,-2.40463662,0.000000
-12.34802723,-2.75337887,-2.40464067,0.000000
-12.36462879,-2.67808580,-2.40464425,0.000000
-12.38072205,-2.60269523,-2.40464783,0.000000
-12.39636707,-2.52716780,-2.40465164,0.000000
-12.41156197,-2.45160151,-2.40465498,0.000000
-12.42624950,-2.37591791,-2.40465832,0.000000
-12.44052696,-2.30015612,-2.40466166,0.000000
-12.45433521,-2.22429681,-2.40466475,0.000000
-12.46767521,-2.14833975,-2.40466785,0.000000
-12.48056602,-2.07234359,-2.40467072,0.000000
-12.49296856,-1.99624991,-2.40467358,0.000000
-12.50492191,-1.92009759,-2.40467620,0.000000
-12.51634693,-1.84382808,-2.40467882,0.000000
-12.52746105,-1.76751947,-2.40468144,0.000000
-12.53796864,-1.69117188,-2.40468359,0.000000
-12.54802704,-1.61468744,-2.40468597,0.000000
-12.55765629,-1.53820312,-2.40468812,0.000000
-12.56679630,-1.46164060,-2.40469027,0.000000
-12.57552719,-1.38503909,-2.40469217,0.000000
-12.58371067,-1.30839837,-2.40469408,0.000000
-12.59148407,-1.23166013,-2.40469575,0.000000
-12.59871101,-1.15488279,-2.40469742,0.000000
-12.60554695,-1.07808590,-2.40469885,0.000000
-12.61195278,-1.00126946,-2.40470028,0.000000
-12.61779308,-0.92441404,-2.40470147,0.000000
-12.62318325,-0.84749997,-2.40470266,0.000000
-12.62808609,-0.77054685,-2.40470386,0.000000
-12.63255787,-0.69355470,-2.40470457,0.000000
-12.63658142,-0.61656249,-2.40470552,0.000000
-12.64011669,-0.53953123,-2.40470648,0.000000
-12.64318371,-0.46249998,-2.40470695,0.000000
-12.64576149,-0.38542968,-2.40470743,0.000000
-12.64787102,-0.30835935,-2.40470791,0.000000
-12.64951134,-0.23128906,-2.40470815,0.000000
-12.65066338,-0.15417968,-2.40470839,0.000000
-12.65138626,-0.07708984,-2.40470839,0.000000
-12.15826130,-0.00001953,-2.40459323,0.000000
-12.15798759,0.07408203,-2.40459323,0.000000
-12.15732384,0.14818358,-2.40459299,0.000000
-12.15621090,0.22226562,-2.40459251,0.000000
-12.15464783,0.29634765,-2.40459228,0.000000
-12.15261650,0.37042966,-2.40459156,0.000000
-12.15011692,0.44449219,-2.40459108,0.000000
-12.14712906,0.51853514,-2.40459013,0.000000
-12.14378834,0.59251952,-2.40458941,0.000000
-12.13992119,0.66654295,-2.40458822,0.000000
-12.13562489,0.74052733,-2.40458727,0.000000
-12.13089848,0.81443357,-2.40458608,0.000000
-12.12568378,0.88833982,-2.40458465,0.000000
-12.12005806,0.96224606,-2.40458345,0.000000
-12.11396503,1.03609371,-2.40458179,0.000000
-12.10740185,1.10990226,-2.40458035,0.000000
-12.10039043,1.18365228,-2.40457845,0.000000
-12.09298801,1.25738275,-2.40457678,0.000000
-12.08505821,1.33103514,-2.40457487,0.000000
-12.07671833,1.40466797,-2.40457296,0.000000
-12.06791019,1.47824216,-2.40457082,0.000000
-12.05871105,1.55175781,-2.40456843,0.000000
-12.04900360,1.62519526,-2.40456605,0.000000
-12.03882790,1.69859374,-2.40456367,0.000000
-12.02828121,1.77193356,-2.40456104,0.000000
-12.01722622,1.84519529,-2.40455842,0.000000
-12.00572205,1.91841793,-2.40455580,0.000000
-11.99378872,1.99154294,-2.40455294,0.000000
-11.98144531,2.06457019,-2.40454984,0.000000
-11.96861267,2.13753891,-2.40454674,0.000000
-11.95538998,2.21046877,-2.40454364,0.000000
-11.94163990,2.28326178,-2.40454030,0.000000
-11.92747974,2.35601568,-2.40453696,0.000000
-11.91289043,2.42865229,-2.40453339,0.000000
-11.89787102,2.50121093,-2.40453005,0.000000
-11.88238239,2.57363272,-2.40452623,0.000000
-11.86644459,2.64601564,-2.40452242,0.000000
-11.85009766,2.71830082,-2.40451860,0.000000
-11.83331966,2.79041004,-2.40451455,0.000000
-11.81601524,2.86249995,-2.40451050,0.000000
-11.79831982,2.93441391,-2.40450621,0.000000
-11.78023434,3.00626945,-2.40450191,0.000000
-11.76162052,3.07800770,-2.40449762,0.000000
-11.74267578,3.14966798,-2.40449309,0.000000
-11.72324181,3.22115231,-2.40448833,0.000000
-11.70335865,3.29250002,-2.40448356,0.000000
-11.68306637,3.36374998,-2.40447879,0.000000
-11.66232395,3.43486309,-2.40447402,0.000000
-11.64113235,3.50589848,-2.40446901,0.000000
-11.61951160,3.57675767,-2.40446401,0.000000
-11.59749985,3.64751935,-2.40445852,0.000000
-11.57503891,3.71808577,-2.40445328,0.000000
-11.55212879,3.78855467,-2.40444779,0.000000
-11.52878857,3.85886717,-2.40444231,0.000000
-11.50500011,3.92906237,-2.40443683,0.000000
-11.48085880,3.99912095,-2.40443110,0.000000
-11.45625019,4.06898451,-2.40442514,0.000000
-11.43119144,4.13873053,-2.40441942,0.000000
-11.40576172,4.20830059,-2.40441322,0.000000
-11.37982368,4.27771473,-2.40440702,0.000000
-11.35353470,4.34699202,-2.40440083,0.000000
-11.32679653,4.41605473,-2.40439463,0.000000
-11.29966736,4.48501921,-2.40438819,0.000000
-11.27208996,4.55376959,-2.40438175,0.000000
-11.24412060,4.62238264,-2.40437508,0.000000
-11.21564388,4.69080067,-2.40436840,0.000000
-11.18685532,4.75904274,-2.40436172,0.000000
-11.15763664,4.82712889,-2.40435481,0.000000
-11.12794876,4.89501953,-2.40434790,0.000000
-11.09785175,4.96273422,-2.40434051,0.000000
-11.06740189,5.03025389,-2.40433335,0.000000
-11.03652287,5.09759760,-2.40432620,0.000000
-11.00521469,5.16474581,-2.40431881,0.000000
-10.97347641,5.23167944,-2.40431142,0.000000
-10.94136715,5.29845715,-2.40430379,0.000000
-10.90884781,5.36501932,-2.40429616,0.000000
-10.87587833,5.43138647,-2.40428853,0.000000
-10.84255791,5.49753904,-2.40428042,0.000000
-10.80884743,5.56347656,-2.40427279,0.000000
-10.77468681,5.62925768,-2.40426469,0.000000
-10.74017525,5.69478512,-2.40425634,0.000000
-10.70521450,5.76011705,-2.40424824,0.000000
-10.66988277,5.82521486,-2.40423989,0.000000
-10.63416004,5.89009762,-2.40423155,0.000000
-10.59802723,5.95480442,-2.40422297,0.000000
-10.56150341,6.01925755,-2.40421438,0.000000
-10.52453136,6.08349609,-2.40420580,0.000000
-10.48722649,6.14751959,-2.40419698,0.000000
-10.44958973,6.21126938,-2.40418792,0.000000
-10.41144466,6.27482414,-2.40417910,0.000000
-10.37298775,6.33812475,-2.40417004,0.000000
-10.33412075,6.40119123,-2.40416098,0.000000
-10.29488277,6.46402311,-2.40415168,0.000000
-10.25527287,6.52662086,-2.40414238,0.000000
-10.21525383,6.58898401,-2.40413308,0.000000
-10.17486286,6.65107393,-2.40412354,0.000000
-10.13414001,6.71294928,-2.40411401,0.000000
-10.09298801,6.77455044,-2.40410423,0.000000
-10.05148411,6.83589840,-2.40409446,0.000000
-10.00957012,6.89701176,-2.40408468,0.000000
-9.96734333,6.95781231,-2.40407491,0.000000
-9.92466736,7.01841784,-2.40406466,0.000000
-9.88167953,7.07874966,-2.40405464,0.000000
-9.83830070,7.13880825,-2.40404463,0.000000
-9.79462910,7.19859362,-2.40403414,0.000000
-9.75048828,7.25814438,-2.40402389,0.000000
-9.70603466,7.31738281,-2.40401340,0.000000
-9.66121101,7.37634754,-2.40400290,0.000000
-9.61603451,7.43507814,-2.40399218,0.000000
-9.57054710,7.49349594,-2.40398169,0.000000
-9.52462864,7.55166006,-2.40397096,0.000000
-9.47837830,7.60949183,-2.40395999,0.000000
-9.43179703,7.66712856,-2.40394902,0.000000
-9.38486290,7.72441387,-2.40393806,0.000000
-9.33759785,7.78142548,-2.40392685,0.000000
-9.28992176,7.83816385,-2.40391588,0.000000
-9.24197292,7.89457035,-2.40390444,0.000000
-9.19363308,7.95072269,-2.40389323,0.000000
-9.14496040,8.00656223,-2.40388179,0.000000
-9.09593773,8.06208992,-2.40387034,0.000000
-9.04662132,8.11736298,-2.40385866,0.000000
-8.99691391,8.17230415,-2.40384722,0.000000
-8.94691372,8.22695255,-2.40383530,0.000000
-8.89652348,8.28126907,-2.40382361,0.000000
-8.84591770,8.33529282,-2.40381169,0.000000
-8.79486275,8.38902283,-2.40379977,0.000000
-8.74355412,8.44242191,-2.40378761,0.000000
-8.69187450,8.49550724,-2.40377569,0.000000
-8.63992214,8.54824162,-2.40376329,0.000000
-8.58763695,8.60070324,-2.40375113,0.000000
-8.53499985,8.65281200,-2.40373874,0.000000
-8.48205090,8.70464802,-2.40372634,0.000000
-8.42882824,8.75611305,-2.40371394,0.000000
-8.37525368,8.80726528,-2.40370131,0.000000
-8.32138634,8.85812473,-2.40368867,0.000000
-8.26718712,8.90861320,-2.40367603,0.000000
-8.21275330,8.95876980,-2.40366316,0.000000
-8.15792942,9.00861263,-2.40365052,0.000000
-8.10283184,9.05810547,-2.40363765,0.000000
-8.04744148,9.10728455,-2.40362477,0.000000
-7.99169922,9.15611267,-2.40361166,0.000000
-7.93576145,9.20458984,-2.40359831,0.000000
-7.87945318,9.25271511,-2.40358520,0.000000
-7.82287073,9.30054665,-2.40357208,0.000000
-7.76603508,9.34796810,-2.40355849,0.000000
-7.70886707,9.39507771,-2.40354538,0.000000
-7.65138674,9.44185543,-2.40353179,0.000000
-7.59369135,9.48824215,-2.40351820,0.000000
-7.53566408,9.53425789,-2.40350485,0.000000
-7.47740221,9.57997990,-2.40349126,0.000000
-7.41882801,9.62529278,-2.40347743,0.000000
-7.35999966,9.67027283,-2.40346360,0.000000
-7.30087852,9.71490192,-2.40344977,0.000000
-7.24150372,9.75914001,-2.40343571,0.000000
-7.18185520,9.80304623,-2.40342188,0.000000
-7.12191391,9.84658146,-2.40340781,0.000000
-7.06175756,9.88974571,-2.40339375,0.000000
-7.00130844,9.93253899,-2.40337968,0.000000
-6.94058561,9.97496033,-2.40336537,0.000000
-6.87960911,10.01701164,-2.40335131,0.000000
-6.81841803,10.05867195,-2.40333700,0.000000
-6.75695276,10.09999943,-2.40332246,0.000000
-6.69525385,10.14093685,-2.40330815,0.000000
-6.63328123,10.18148422,-2.40329361,0.000000
-6.57103491,10.22164059,-2.40327883,0.000000
-6.50859356,10.26146507,-2.40326452,0.000000
-6.44589806,10.30085945,-2.40324974,0.000000
-6.38296843,10.33990192,-2.40323496,0.000000
-6.31978512,10.37851524,-2.40322018,0.000000
-6.25640631,10.41677666,-2.40320539,0.000000
-6.19275379,10.45468712,-2.40319037,0.000000
-6.12890625,10.49212837,-2.40317559,0.000000
-6.06482410,10.52921867,-2.40316057,0.000000
-6.00044918,10.56591797,-2.40314555,0.000000
-5.93593740,10.60222626,-2.40313053,0.000000
-5.87117195,10.63814449,-2.40311527,0.000000
-5.80617189,10.67365170,-2.40310001,0.000000
-5.74103498,10.70876884,-2.40308475,0.000000
-5.67562485,10.74349594,-2.40306950,0.000000
-5.61001921,10.77781200,-2.40305424,0.000000
-5.54414034,10.81175804,-2.40303874,0.000000
-5.47818327,10.84525394,-2.40302324,0.000000
-5.41193342,10.87835884,-2.40300798,0.000000
-5.34548807,10.91111279,-2.40299225,0.000000
-5.27886724,10.94339848,-2.40297675,0.000000
-5.21205044,10.97527313,-2.40296102,0.000000
-5.14503908,11.00675774,-2.40294552,0.000000
-5.07785130,11.03785133,-2.40292978,0.000000
-5.01042938,11.06849575,-2.40291405,0.000000
-4.94283199,11.09876919,-2.40289831,0.000000
-4.87507820,11.12859344,-2.40288234,0.000000
-4.80710936,11.15804672,-2.40286636,0.000000
-4.73902321,11.18705082,-2.40285063,0.000000
-4.67074203,11.21564388,-2.40283465,0.000000
-4.60226536,11.24380875,-2.40281844,0.000000
-4.53361320,11.27160168,-2.40280247,0.000000
-4.46484375,11.29892540,-2.40278649,0.000000
-4.39583969,11.32585907,-2.40277028,0.000000
-4.32671881,11.35236263,-2.40275407,0.000000
-4.25742197,11.37845707,-2.40273809,0.000000
-4.18796873,11.40408134,-2.40272188,0.000000
-4.11837864,11.42935562,-2.40270543,0.000000
-4.04863262,11.45412064,-2.40268922,0.000000
-3.97871089,11.47851563,-2.40267277,0.000000
-3.90861320,11.50249958,-2.40265656,0.000000
-3.83841777,11.52601528,-2.40264010,0.000000
-3.76810527,11.54912090,-2.40262365,0.000000
-3.69765615,11.57175732,-2.40260720,0.000000
-3.62701154,11.59402275,-2.40259075,0.000000
-3.55628896,11.61581993,-2.40257430,0.000000
-3.48537111,11.63720703,-2.40255761,0.000000
-3.41437483,11.65816402,-2.40254092,0.000000
-3.34324217,11.67863274,-2.40252447,0.000000
-3.27201176,11.69874954,-2.40250778,0.000000
-3.20062494,11.71837902,-2.40249109,0.000000
-3.12908196,11.73757744,-2.40247440,0.000000
-3.05749989,11.75634766,-2.40245771,0.000000
-2.98580074,11.77468681,-2.40244079,0.000000
-2.91394520,11.79257774,-2.40242410,0.000000
-2.84201169,11.81007767,-2.40240741,0.000000
-2.76998043,11.82705021,-2.40239048,0.000000
-2.69779301,11.84361267,-2.40237355,0.000000
-2.62558579,11.85974598,-2.40235686,0.000000
-2.55324221,11.87546825,-2.40233994,0.000000
-2.48080063,11.89072227,-2.40232301,0.000000
-2.40828109,11.90554619,-2.40230608,0.000000
-2.33566403,11.91990185,-2.40228915,0.000000
-2.26296878,11.93382740,-2.40227222,0.000000
-2.19015622,11.94734383,-2.40225506,0.000000
-2.11730456,11.96035099,-2.40223813,0.000000
-2.04437494,11.97294903,-2.40222096,0.000000
-1.97134757,11.98509693,-2.40220404,0.000000
-1.89824212,11.99679661,-2.40218687,0.000000
-1.82507813,12.00808525,-2.40216994,0.000000
-1.75187492,12.01888657,-2.40215278,0.000000
-1.67855465,12.02927685,-2.40213561,0.000000
-1.60521483,12.03914070,-2.40211844,0.000000
-1.53181636,12.04863262,-2.40210128,0.000000
-1.45835936,12.05765629,-2.40208435,0.000000
-1.38478518,12.06626892,-2.40206695,0.000000
-1.31124997,12.07435513,-2.40205002,0.000000
-1.23765624,12.08205032,-2.40203261,0.000000
-1.16398430,12.08929634,-2.40201569,0.000000
-1.09025383,12.09607410,-2.40199828,0.000000
-1.01648438,12.10242176,-2.40198112,0.000000
-0.94271481,12.10830021,-2.40196395,0.000000
-0.86892575,12.11373043,-2.40194654,0.000000
-0.79507810,12.11871052,-2.40192938,0.000000
-0.72119141,12.12322235,-2.40191221,0.000000
-0.64728516,12.12730408,-2.40189505,0.000000
-0.57339841,12.13093758,-2.40187764,0.000000
-0.49945313,12.13416004,-2.40186048,0.000000
-0.42546874,12.13687515,-2.40184331,0.000000
-0.35150391,12.13914013,-2.40182590,0.000000
-0.27750000,12.14097595,-2.40180874,0.000000
-0.20351562,12.14234352,-2.40179157,0.000000
-0.12953125,12.14330006,-2.40177417,0.000000
-0.05548828,12.14375019,-2.40175676,0.000000
0.01849609,12.14378834,-2.40173960,0.000000
0.09250000,12.14335918,-2.40172243,0.000000
0.16648437,12.14247990,-2.40170503,0.000000
0.24048828,12.14115238,-2.40168786,0.000000
0.31453124,12.13939381,-2.40167069,0.000000
0.38847655,12.13714790,-2.40165329,0.000000
0.46242186,12.13445282,-2.40163612,0.000000
0.53632814,12.13132763,-2.40161896,0.000000
0.61025387,12.12775326,-2.40160155,0.000000
0.68417966,12.12373066,-2.40158439,0.000000
0.75798827,12.11925793,-2.40156722,0.000000
0.83185548,12.11431599,-2.40154982,0.000000
0.90568358,12.10894489,-2.40153265,0.000000
0.97945309,12.10310555,-2.40151548,0.000000
1.05316401,12.09679699,-2.40149832,0.000000
1.12689447,12.09011650,-2.40148115,0.000000
1.20054686,12.08289051,-2.40146399,0.000000
1.27416015,12.07529259,-2.40144682,0.000000
1.34767580,12.06722641,-2.40142965,0.000000
1.42117178,12.05869102,-2.40141249,0.000000
1.49462891,12.04972649,-2.40139532,0.000000
1.56800783,12.04029274,-2.40137815,0.000000
1.64138663,12.03044891,-2.40136123,0.000000
1.71462882,12.02011681,-2.40134406,0.000000
1.78785157,12.00937462,-2.40132689,0.000000
1.86095703,11.99814415,-2.40130997,0.000000
1.93402338,11.98648453,-2.40129304,0.000000
2.00703120,11.97441387,-2.40127587,0.000000
2.07996082,11.96187496,-2.40125895,0.000000
2.15283203,11.94890594,-2.40124178,0.000000
2.22560549,11.93544865,-2.40122485,0.000000
2.29826164,11.92160130,-2.40120792,0.000000
2.37085938,11.90728474,-2.40119100,0.000000
2.44333982,11.89251900,-2.40117431,0.000000
2.51574206,11.87732410,-2.40115738,0.000000
2.58808589,11.86171818,-2.40114045,0.000000
2.66029286,11.84560490,-2.40112352,0.000000
2.73244143,11.82912064,-2.40110683,0.000000
2.80443358,11.81214809,-2.40109015,0.000000
2.87634754,11.79478455,-2.40107322,0.000000
2.94816399,11.77695274,-2.40105653,0.000000
3.01984358,11.75867176,-2.40103984,0.000000
3.09144521,11.73996067,-2.40102315,0.000000
3.16290998,11.72082043,-2.40100646,0.000000
3.23427725,11.70123005,-2.40099001,0.000000
3.30548811,11.68123055,-2.40097332,0.000000
3.37662101,11.66080093,-2.40095663,0.000000
3.44759750,11.63994122,-2.40094018,0.000000
3.51841784,11.61861324,-2.40092373,0.000000
3.58914065,11.59687519,-2.40090728,0.000000
3.65968752,11.57470703,-2.40089083,0.000000
3.73019528,11.55210876,-2.40087438,0.000000
3.80046868,11.52910137,-2.40085793,0.000000
3.87062502,11.50562477,-2.40084171,0.000000
3.94066405,11.48175716,-2.40082526,0.000000
4.01052713,11.45746040,-2.40080905,0.000000
4.08023405,11.43273449,-2.40079284,0.000000
4.14980459,11.40757751,-2.40077662,0.000000
4.21921873,11.38199234,-2.40076041,0.000000
4.28847647,11.35597610,-2.40074420,0.000000
4.35761690,11.32958984,-2.40072823,0.000000
4.42654276,11.30269527,-2.40071225,0.000000
4.49527311,11.27544880,-2.40069628,0.000000
4.56390619,11.24775410,-2.40068007,0.000000
4.63234377,11.21968746,-2.40066433,0.000000
4.70060539,11.19117165,-2.40064836,0.000000
4.76865244,11.16224575,-2.40063262,0.000000
4.83658171,11.13289070,-2.40061665,0.000000
4.90431643,11.10314465,-2.40060091,0.000000
4.97183561,11.07296848,-2.40058517,0.000000
5.03921843,11.04240227,-2.40056944,0.000000
5.10638666,11.01138687,-2.40055394,0.000000
5.17335939,10.97999954,-2.40053821,0.000000
5.24009752,10.94820309,-2.40052271,0.000000
5.30673838,10.91603470,-2.40050721,0.000000
5.37310553,10.88339806,-2.40049171,0.000000
5.43929672,10.85040951,-2.40047622,0.000000
5.50527334,10.81699181,-2.40046096,0.000000
5.57105446,10.78316402,-2.40044570,0.000000
5.63662100,10.74892521,-2.40043044,0.000000
5.70201159,10.71429634,-2.40041518,0.000000
5.76714849,10.67927742,-2.40039992,0.000000
5.83208990,10.64384747,-2.40038490,0.000000
5.89679670,10.60806656,-2.40036988,0.000000
5.96132803,10.57185555,-2.40035486,0.000000
6.02562475,10.53529263,-2.40033984,0.000000
6.08964825,10.49830055,-2.40032506,0.000000
6.15347624,10.46089840,-2.40031004,0.000000
6.21708965,10.42316341,-2.40029526,0.000000
6.28042936,10.38500023,-2.40028071,0.000000
6.34357405,10.34648418,-2.40026593,0.000000
6.40648413,10.30757809,-2.40025115,0.000000
6.46914053,10.26826191,-2.40023685,0.000000
6.53156233,10.22857380,-2.40022230,0.000000
6.59371090,10.18851566,-2.40020776,0.000000
6.65570307,10.14812469,-2.40019345,0.000000
6.71732426,10.10728455,-2.40017915,0.000000
6.77873039,10.06613255,-2.40016484,0.000000
6.83994102,10.02453136,-2.40015054,0.000000
6.90083981,9.98261738,-2.40013647,0.000000
6.96152306,9.94037056,-2.40012217,0.000000
7.02191401,9.89765644,-2.40010810,0.000000
7.08207035,9.85462856,-2.40009427,0.000000
7.14197254,9.81124973,-2.40008020,0.000000
7.20160151,9.76746082,-2.40006638,0.000000
7.26091766,9.72335911,-2.40005255,0.000000
7.32001925,9.67888641,-2.40003896,0.000000
7.37884760,9.63402367,-2.40002513,0.000000
7.43736315,9.58882809,-2.40001178,0.000000
7.49560547,9.54322243,-2.39999819,0.000000
7.55359364,9.49734306,-2.39998460,0.000000
7.61128902,9.45107365,-2.39997101,0.000000
7.66867161,9.40445328,-2.39995790,0.000000
7.72583961,9.35748005,-2.39994454,0.000000
7.78265619,9.31017590,-2.39993119,0.000000
7.83923817,9.26257801,-2.39991808,0.000000
7.89550781,9.21453094,-2.39990497,0.000000
7.95144510,9.16621113,-2.39989209,0.000000
8.00710964,9.11751938,-2.39987898,0.000000
8.06246090,9.06849575,-2.39986634,0.000000
8.11757755,9.01914024,-2.39985347,0.000000
8.17232418,8.96947289,-2.39984083,0.000000
8.22683620,8.91947269,-2.39982820,0.000000
8.28095722,8.86912060,-2.39981556,0.000000
8.33486271,8.81841755,-2.39980316,0.000000
8.38835907,8.76744080,-2.39979053,0.000000
8.44160175,8.71609402,-2.39977813,0.000000
8.49449158,8.66447258,-2.39976597,0.000000
8.54708958,8.61250019,-2.39975381,0.000000
8.59937477,8.56019497,-2.39974165,0.000000
8.65138626,8.50761700,-2.39972949,0.000000
8.70302677,8.45466805,-2.39971757,0.000000
8.75429630,8.40140629,-2.39970565,0.000000
8.80531216,8.34787083,-2.39969397,0.000000
8.85597610,8.29400349,-2.39968204,0.000000
8.90636730,8.23986340,-2.39967036,0.000000
8.95632839,8.18539047,-2.39965868,0.000000
9.00599575,8.13060570,-2.39964724,0.000000
9.05535126,8.07556629,-2.39963579,0.000000
9.10433578,8.02017593,-2.39962435,0.000000
9.15302753,7.96449184,-2.39961314,0.000000
9.20134735,7.90853500,-2.39960194,0.000000
9.24929714,7.85226536,-2.39959073,0.000000
9.29693317,7.79570293,-2.39957976,0.000000
9.34427738,7.73890591,-2.39956880,0.000000
9.39119148,7.68175745,-2.39955783,0.000000
9.43779278,7.62435532,-2.39954710,0.000000
9.48404312,7.56665993,-2.39953613,0.000000
9.52994156,7.50871086,-2.39952564,0.000000
9.57552719,7.45042944,-2.39951491,0.000000
9.62068367,7.39191389,-2.39950466,0.000000
9.66548824,7.33308554,-2.39949417,0.000000
9.70994091,7.27404261,-2.39948392,0.000000
9.75404263,7.21464825,-2.39947367,0.000000
9.79781246,7.15505838,-2.39946342,0.000000
9.84119129,7.09521484,-2.39945340,0.000000
9.88419914,7.03511715,-2.39944339,0.000000
9.92687511,6.97466803,-2.39943361,0.000000
9.96914005,6.91400385,-2.39942384,0.000000
10.01105404,6.85310555,-2.39941406,0.000000
10.05261707,6.79195309,-2.39940429,0.000000
10.09375000,6.73054695,-2.39939499,0.000000
10.13451195,6.66884756,-2.39938545,0.000000
10.17496109,6.60695314,-2.39937615,0.000000
10.21500015,6.54478502,-2.39936686,0.000000
10.25464821,6.48240232,-2.39935756,0.000000
10.29394531,6.41976547,-2.39934850,0.000000
10.33281231,6.35687494,-2.39933944,0.000000
10.37134743,6.29374981,-2.39933062,0.000000
10.40943336,6.23042965,-2.39932179,0.000000
10.44718742,6.16687489,-2.39931297,0.000000
10.48455048,6.10302734,-2.39930439,0.000000
10.52150345,6.03904295,-2.39929581,0.000000
10.55808544,5.97476530,-2.39928746,0.000000
10.59421825,5.91029263,-2.39927888,0.000000
10.63003922,5.84558582,-2.39927077,0.000000
10.66541004,5.78066397,-2.39926243,0.000000
10.70042992,5.71556616,-2.39925432,0.000000
10.73498058,5.65021467,-2.39924645,0.000000
10.76923847,5.58468723,-2.39923859,0.000000
10.80302715,5.51892567,-2.39923072,0.000000
10.83640575,5.45294905,-2.39922285,0.000000
10.86937523,5.38677740,-2.39921522,0.000000
10.90195274,5.32044888,-2.39920783,0.000000
10.93419933,5.25394535,-2.39920044,0.000000
10.96597672,5.18714809,-2.39919305,0.000000
10.99736309,5.12023449,-2.39918590,0.000000
11.02828121,5.05304670,-2.39917874,0.000000
11.05884743,4.98578119,-2.39917159,0.000000
11.08900356,4.91826153,-2.39916468,0.000000
11.11874962,4.85058594,-2.39915776,0.000000
11.14806652,4.78273439,-2.39915085,0.000000
11.17695332,4.71466780,-2.39914441,0.000000
11.20548820,4.64650393,-2.39913774,0.000000
11.23357391,4.57810545,-2.39913130,0.000000
11.26119137,4.50953102,-2.39912486,0.000000
11.28841782,4.44080067,-2.39911866,0.000000
11.31529236,4.37191391,-2.39911246,0.000000
11.34171867,4.30287123,-2.39910650,0.000000
11.36767578,4.23363256,-2.39910054,0.000000
11.39324188,4.16429663,-2.39909458,0.000000
11.41835880,4.09474611,-2.39908862,0.000000
11.44308567,4.02509737,-2.39908314,0.000000
11.46738243,3.95525384,-2.39907742,0.000000
11.49125004,3.88531232,-2.39907193,0.000000
11.51464844,3.81519532,-2.39906645,0.000000
11.53769493,3.74494123,-2.39906120,0.000000
11.56023407,3.67455077,-2.39905596,0.000000
11.58246040,3.60400391,-2.39905095,0.000000
11.60414028,3.53335929,-2.39904594,0.000000
11.62541008,3.46257806,-2.39904118,0.000000
11.64628887,3.39162111,-2.39903641,0.000000
11.66671848,3.32058597,-2.39903164,0.000000
11.68675709,3.24941397,-2.39902711,0.000000
11.70628834,3.17812490,-2.39902258,0.000000
11.72540951,3.10673833,-2.39901829,0.000000
11.74414063,3.03523421,-2.39901376,0.000000
11.76238251,2.96359372,-2.39900970,0.000000
11.78019524,2.89183593,-2.39900541,0.000000
11.79759693,2.82001948,-2.39900160,0.000000
11.81453133,2.74806643,-2.39899778,0.000000
11.83105469,2.67597651,-2.39899397,0.000000
11.84710884,2.60384750,-2.39899015,0.000000
11.86273384,2.53158188,-2.39898682,0.000000
11.87792969,2.45925784,-2.39898324,0.000000
11.89267540,2.38679671,-2.39897990,0.000000
11.90699196,2.31425786,-2.39897680,0.000000
11.92085934,2.24166012,-2.39897346,0.000000
11.93427753,2.16896486,-2.39897037,0.000000
11.94728470,2.09621096,-2.39896727,0.000000
11.95982361,2.02337885,-2.39896464,0.000000
11.97187519,1.95041013,-2.39896178,0.000000
11.98353481,1.87742186,-2.39895916,0.000000
11.99476528,1.80435538,-2.39895678,0.000000
12.00552750,1.73123038,-2.39895415,0.000000
12.01583958,1.65802729,-2.39895201,0.000000
12.02568340,1.58476555,-2.39894962,0.000000
12.03515625,1.51142573,-2.39894748,0.000000
12.04408169,1.43808591,-2.39894557,0.000000
12.05267525,1.36466789,-2.39894366,0.000000
12.06072235,1.29117179,-2.39894199,0.000000
12.06835938,1.21765625,-2.39894009,0.000000
12.07556629,1.14408195,-2.39893866,0.000000
12.08226490,1.07046878,-2.39893699,0.000000
12.08855438,0.99675781,-2.39893556,0.000000
12.09441376,0.92312497,-2.39893436,0.000000
12.09982395,0.84937501,-2.39893317,0.000000
12.10474586,0.77566403,-2.39893222,0.000000
12.10927677,0.70187497,-2.39893103,0.000000
12.11330032,0.62800777,-2.39893031,0.000000
12.11689472,0.55421871,-2.39892960,0.000000
12.12007809,0.48035154,-2.39892888,0.000000
12.12273407,0.40650389,-2.39892840,0.000000
12.12501907,0.33259764,-2.39892793,0.000000
12.12679672,0.25867188,-2.39892745,0.000000
12.12818336,0.18476562,-2.39892721,0.000000
12.12906265,0.11087891,-2.39892721,0.000000
12.12951183,0.03697266,-2.39892721,0.000000
12.12953091,-0.03695313,-2.39892721,0.000000
12.12908173,-0.11089844,-2.39892745,0.000000
12.12816334,-0.18480468,-2.39892769,0.000000
12.12683582,-0.25869140,-2.39892793,0.000000
12.12501907,-0.33261719,-2.39892864,0.000000
12.12277317,-0.40650389,-2.39892912,0.000000
12.12005806,-0.48035154,-2.39892983,0.000000
12.11689472,-0.55423826,-2.39893079,0.000000
12.11332035,-0.62806642,-2.39893174,0.000000
12.10925770,-0.70185548,-2.39893270,0.000000
12.10478497,-0.77566403,-2.39893389,0.000000
12.09982395,-0.84941405,-2.39893508,0.000000
12.09443378,-0.92312497,-2.39893627,0.000000
12.08857441,-0.99683589,-2.39893770,0.000000
12.08230400,-1.07046878,-2.39893937,0.000000
12.07558537,-1.14406252,-2.39894104,0.000000
12.06837845,-1.21767581,-2.39894271,0.000000
12.06074238,-1.29117179,-2.39894462,0.000000
12.05265617,-1.36466789,-2.39894652,0.000000
12.04415989,-1.43804681,-2.39894867,0.000000
12.03513622,-1.51146483,-2.39895082,0.000000
12.02574158,-1.58478510,-2.39895296,0.000000
12.01585865,-1.65802729,-2.39895558,0.000000
