ply
format ascii 1.0
comment Created by CloudCompare v2.11.1 (Anoia)
comment Created 1/31/24 2:23 PM
obj_info Generated by CloudCompare!
element vertex 1674
property float x
property float y
property float z
property float scalar_ObjIdx
end_header
10.1478 -13.9404 0.473983 0 
10.018 -13.9399 0.471882 0 
9.88941 -13.9393 0.469815 0 
9.76188 -13.9389 0.467787 0 
9.63547 -13.9384 0.465792 0 
9.51016 -13.9379 0.463833 0 
9.38586 -13.9374 0.461904 0 
9.26258 -13.9369 0.460007 0 
9.14031 -13.9364 0.458145 0 
9.01902 -13.936 0.456315 0 
8.89867 -13.9355 0.454514 0 
8.77934 -13.935 0.452747 0 
8.66086 -13.9346 0.451009 0 
8.54328 -13.9341 0.449297 0 
8.4266 -13.9337 0.447618 0 
8.28305 -13.8867 0.444472 0 
8.19582 -13.9328 0.444349 0 
8.0926 -13.9512 0.443357 0 
7.97912 -13.9508 0.441788 0 
7.86645 -13.9504 0.440249 0 
7.75457 -13.95 0.438738 0 
7.6434 -13.9495 0.437249 0 
7.53305 -13.9491 0.435791 0 
7.42336 -13.9487 0.434355 0 
7.31441 -13.9483 0.432946 0 
6.1207 -11.847 0.366557 0 
6.02938 -11.8466 0.365402 0 
5.93859 -11.8463 0.364267 0 
5.87197 -11.8938 0.364622 0 
5.87129 -12.0773 0.369149 0 
6.66582 -13.9269 0.424426 0 
6.56164 -13.9264 0.423188 0 
6.45801 -13.9261 0.421972 0 
6.355 -13.9257 0.420778 0 
6.25258 -13.9252 0.419606 0 
6.1507 -13.9249 0.418458 0 
6.04938 -13.9245 0.417328 0 
5.94859 -13.9241 0.416225 0 
5.84836 -13.9237 0.41514 0 
5.74863 -13.9233 0.414075 0 
5.66174 -13.9533 0.413935 0 
5.66078 -14.1987 0.420184 0 
5.6598 -14.4517 0.426641 0 
5.65879 -14.7125 0.433316 0 
5.65775 -14.9817 0.440219 0 
5.65668 -15.2595 0.447363 0 
5.60436 -15.4059 0.450638 0 
5.54805 -15.5453 0.453703 0 
5.71756 -16.334 0.475718 0 
5.65227 -16.4686 0.478628 0 
5.54443 -16.4809 0.47799 0 
5.64939 -17.1378 0.496037 0 
5.64803 -17.4914 0.505268 0 
5.6466 -17.8585 0.514867 0 
5.64514 -18.2398 0.524859 0 
5.64359 -18.6362 0.535266 0 
5.64199 -19.0487 0.546114 0 
5.6298 -19.4419 0.556392 0 
5.53252 -19.5511 0.558545 0 
5.62619 -20.3548 0.580513 0 
5.52891 -20.4882 0.583326 0 
5.63291 -21.3911 0.608066 0 
5.63082 -21.925 0.622255 0 
5.72262 -22.8596 0.647779 0 
5.57467 -22.859 0.646788 0 
5.42713 -22.8585 0.645821 0 
5.28006 -22.8579 0.644884 0 
5.1334 -22.8573 0.643973 0 
4.98715 -22.8568 0.643089 0 
4.84131 -22.8562 0.642232 0 
4.69582 -22.8556 0.6414 0 
4.55072 -22.8551 0.640594 0 
4.40598 -22.8545 0.639814 0 
4.2616 -22.854 0.63906 0 
4.11754 -22.8534 0.638331 0 
4.09314 -23.5392 0.656777 0 
4.0898 -24.4001 0.68009 0 
4.08623 -25.3245 0.705146 0 
4.08238 -26.3195 0.732147 0 
4.07822 -27.3939 0.761328 0 
4.07371 -28.5575 0.792962 0 
4.06881 -29.8221 0.827373 0 
4.06346 -31.2013 0.864931 0 
4.05762 -32.712 0.906105 0 
4.05117 -34.3736 0.95143 0 
4.04406 -36.2103 1.00157 0 
4.03617 -38.2516 1.05732 0 
4.02732 -40.5333 1.1197 0 
4.01736 -43.1014 1.18994 0 
4.00607 -46.0135 1.26964 0 
3.99318 -49.3437 1.36083 0 
5.74326 -76.7877 2.11669 0 
5.27268 -76.7839 2.11567 0 
4.8025 -76.7803 2.11472 0 
4.33268 -76.7767 2.11386 0 
3.86328 -76.7734 2.11308 0 
3.39426 -76.7702 2.11238 0 
3.20814 -84.1845 2.31581 0 
3.71191 -115.975 3.18965 0 
2.78941 -107.671 2.96074 0 
2.11578 -106.81 2.93667 0 
1.45342 -105.985 2.91368 0 
0.798828 -104.857 2.88249 0 
0.159648 -104.746 2.87935 0 
-0.478105 -104.596 2.87524 0 
-1.12094 -105.105 2.88938 0 
-1.75109 -104.477 2.87236 0 
-2.39123 -104.616 2.87653 0 
-3.01037 -103.963 2.85902 0 
-3.62236 -103.328 2.84212 0 
-4.32955 -105.19 2.89402 0 
-4.88789 -103.413 2.84589 0 
-5.57418 -104.434 2.87487 0 
-6.17924 -103.872 2.86038 0 
-6.81871 -103.931 2.86311 0 
-7.43281 -103.622 2.85577 0 
-8.08826 -103.884 2.86432 0 
-8.80426 -104.822 2.89157 0 
-10.0292 -111.271 3.0711 0 
-10.7195 -111.337 3.07468 0 
-11.4876 -112.146 3.09889 0 
-12.0748 -111.189 3.07444 0 
-12.7488 -111.084 3.07362 0 
-13.2738 -109.749 3.03887 0 
-13.8389 -108.853 3.01632 0 
-14.1754 -106.316 2.94839 0 
-14.8002 -106.064 2.94384 0 
-15.3607 -105.385 2.92753 0 
-16.0423 -105.55 2.93479 0 
-16.6217 -105.049 2.9236 0 
-17.2792 -105.053 2.92659 0 
-18.2355 -106.799 2.97827 0 
-18.9204 -106.88 2.98368 0 
-21.4213 -112.968 3.16069 0 
-21.9658 -112.102 3.14016 0 
-22.3196 -110.34 3.09455 0 
-22.0794 -105.83 2.97178 0 
-22.6951 -105.559 2.96801 0 
-23.1776 -104.694 2.9476 0 
-23.8877 -104.869 2.95659 0 
-25.1305 -107.301 3.02941 0 
-25.0474 -104.085 2.94285 0 
-25.9925 -105.191 2.97854 0 
-26.8973 -106.072 3.00809 0 
-28.7104 -110.394 3.13555 0 
-29.2979 -109.899 3.12651 0 
-30.0068 -109.864 3.13064 0 
-23.1078 -82.6201 2.35829 0 
-23.2164 -81.0998 2.31889 0 
-23.1953 -79.1987 2.26853 0 
-23.2366 -77.5838 2.22629 0 
-23.2764 -76.0279 2.18567 0 
-23.412 -74.8385 2.15554 0 
-23.3519 -73.0801 2.10896 0 
-23.3471 -71.5581 2.0691 0 
-23.3676 -70.1677 2.03298 0 
-23.3376 -68.6789 1.99393 0 
-23.4063 -67.5274 1.9646 0 
-23.3356 -66.0203 1.92486 0 
-23.3534 -64.8107 1.89371 0 
-23.41 -63.7472 1.86677 0 
-23.4267 -62.6108 1.83763 0 
-23.4429 -61.5092 1.80946 0 
-23.5815 -60.7577 1.79155 0 
-24.011 -60.764 1.79602 0 
-24.4427 -60.7703 1.80057 0 
-24.8767 -60.7767 1.80522 0 
-25.3129 -60.7831 1.80996 0 
-25.7514 -60.7896 1.81479 0 
-26.1923 -60.7961 1.81972 0 
-26.6355 -60.8026 1.82473 0 
-27.0813 -60.8091 1.82985 0 
-17.1926 -37.9801 1.14602 0 
-17.1902 -37.3671 1.13066 0 
-17.1879 -36.7702 1.11575 0 
-17.1856 -36.1889 1.10126 0 
-10.8852 -22.5658 0.688707 0 
-10.8839 -22.216 0.680043 0 
-10.8825 -21.8748 0.671619 0 
-10.7974 -21.3761 0.658324 0 
-10.9175 -21.2904 0.657709 0 
-10.9295 -20.9975 0.650708 0 
-10.8263 -20.4935 0.637121 0 
-10.8764 -20.2879 0.632779 0 
-10.8752 -19.9922 0.625614 0 
-10.8741 -19.7032 0.61863 0 
-10.873 -19.4204 0.611823 0 
-10.872 -19.1439 0.605187 0 
-10.8709 -18.8733 0.598716 0 
-10.8699 -18.6084 0.592399 0 
-10.8689 -18.349 0.58624 0 
-10.7842 -17.9555 0.575762 0 
-10.8978 -17.8967 0.575997 0 
-10.9166 -17.684 0.571277 0 
-10.9157 -17.4438 0.565655 0 
-10.7805 -16.9965 0.55327 0 
-10.8632 -16.8984 0.552223 0 
-10.8624 -16.6728 0.547004 0 
-10.8615 -16.4514 0.541902 0 
-10.8607 -16.2341 0.536915 0 
-10.8598 -16.0208 0.532037 0 
-10.859 -15.8112 0.527267 0 
-10.8708 -15.6235 0.523135 0 
-10.9649 -15.5556 0.523167 0 
-11.1909 -15.6725 0.529377 0 
-11.3353 -15.6719 0.531682 0 
-11.4766 -15.6654 0.533861 0 
-11.6364 -15.6821 0.536795 0 
-11.7847 -15.6815 0.539223 0 
-11.9346 -15.6808 0.541694 0 
-12.0857 -15.6802 0.544208 0 
-10.8642 -13.9192 0.485342 0 
-10.9698 -13.8792 0.486301 0 
-12.5477 -15.6784 0.552013 0 
-12.6989 -15.6706 0.554454 0 
-12.8295 -15.6359 0.555902 0 
-13.0143 -15.6654 0.559841 0 
-13.176 -15.6648 0.562679 0 
-13.3393 -15.6642 0.565566 0 
-13.5043 -15.6635 0.568504 0 
-13.671 -15.6629 0.571495 0 
-13.8208 -15.641 0.573761 0 
-14.0098 -15.6616 0.577635 0 
-14.182 -15.6609 0.580785 0 
-14.356 -15.6602 0.583994 0 
-14.532 -15.6595 0.587261 0 
-14.71 -15.6589 0.590586 0 
-14.89 -15.6582 0.593971 0 
-15.0721 -15.6575 0.597419 0 
-15.202 -15.601 0.598825 0 
-15.4427 -15.656 0.604506 0 
-15.6314 -15.6553 0.608143 0 
-15.752 -15.585 0.609133 0 
-16.0786 -15.7153 0.618038 0 
-16.2751 -15.7145 0.621897 0 
-16.474 -15.7137 0.625828 0 
-16.562 -15.6061 0.62554 0 
-16.8135 -15.6507 0.631429 0 
-15.1484 -13.9294 0.565723 0 
-15.2613 -13.8626 0.566795 0 
-17.3602 -15.577 0.641173 0 
-17.6539 -15.6474 0.648473 0 
-17.8712 -15.6466 0.65294 0 
-18.0915 -15.6457 0.65749 0 
-18.2031 -15.5493 0.65808 0 
-18.5415 -15.644 0.666864 0 
-18.7714 -15.6431 0.671688 0 
-18.8886 -15.5466 0.672482 0 
-19.2413 -15.6413 0.681635 0 
-19.4816 -15.6404 0.686757 0 
-19.7254 -15.6394 0.69198 0 
-19.954 -15.6236 0.696651 0 
-20.2246 -15.6375 0.702756 0 
-20.4799 -15.6365 0.708299 0 
-20.5896 -15.5225 0.708811 0 
-95.9343 -68.7226 3.24395 0 
-21.9354 -15.512 0.73852 0 
-21.9392 -15.315 0.735493 0 
-21.943 -15.1196 0.732517 0 
-20.4702 -13.9216 0.680528 0 
-21.9503 -14.7334 0.726711 0 
-21.9539 -14.5425 0.723882 0 
-21.9573 -14.353 0.7211 0 
-21.9608 -14.165 0.718363 0 
-21.9642 -13.9784 0.715674 0 
-21.9675 -13.7931 0.713029 0 
-21.9707 -13.6092 0.710427 0 
-98.2095 -56.7678 3.11822 0 
-98.7859 -56.3005 3.12558 0 
-99.5524 -55.9364 3.139 0 
-97.5932 -54.0557 3.06677 0 
-96.7661 -52.8296 3.03059 0 
-97.2194 -52.3105 3.03475 0 
-97.4132 -51.6517 3.03092 0 
-101.125 -52.8328 3.13634 0 
-101.011 -51.9921 3.12291 0 
-104.736 -53.1046 3.22802 0 
-104.746 -52.3096 3.21844 0 
-104.86 -51.5703 3.21222 0 
-98.8513 -42.0526 2.95297 0 
-98.6718 -41.268 2.94005 0 
-99.2823 -40.8143 2.95078 0 
-97.9953 -39.5888 2.9053 0 
-16.2831 -6.46303 0.481557 0 
-97.0628 -37.8425 2.86377 0 
-97.061 -37.1621 2.85698 0 
-98.0118 -36.8428 2.8783 0 
-100.629 -37.1284 2.94847 0 
-100.653 -36.4419 2.94262 0 
-104.555 -37.1354 3.05001 0 
-105.425 -36.7225 3.06881 0 
-108.442 -37.034 3.15 0 
-108.429 -36.2931 3.14313 0 
-99.0136 -27.2055 2.82265 0 
-98.6776 -26.4674 2.80843 0 
-98.7257 -25.8364 2.80524 0 
-96.7121 -24.6808 2.74371 0 
-96.7898 -24.0733 2.7417 0 
-96.5975 -23.4012 2.73217 0 
-97.2622 -22.9357 2.74696 0 
-98.0189 -22.4845 2.76442 0 
-97.7621 -21.7993 2.75338 0 
-98.2515 -21.2807 2.76346 0 
-101.119 -21.2574 2.8404 0 
-105.791 -21.5672 2.96789 0 
-108.309 -21.394 3.03483 0 
-100.911 -14.8656 2.80387 0 
-99.1798 -13.9936 2.75335 0 
-98.6723 -13.3092 2.73696 0 
-98.7471 -12.707 2.73683 0 
-96.1146 -11.7733 2.66184 0 
-95.9231 -11.1569 2.6546 0 
-95.3422 -10.5009 2.63671 0 
-96.0368 -9.98542 2.65418 0 
-104.957 -10.2666 2.89893 0 
-97.5743 -8.94456 2.69347 0 
-98.0307 -8.38423 2.7046 0 
-97.8613 -7.76936 2.69855 0 
-99.3756 -7.28044 2.73904 0 
-100.821 -6.76882 2.77767 0 
-24.9006 2.43573 0.501893 31 
-24.705 2.56869 0.498256 31 
-118.709 13.0745 2.39571 0 
-117.645 13.6834 2.37588 0 
-116.598 14.2824 2.35645 0 
-116.514 14.9934 2.35656 0 
-116.962 15.7762 2.36752 0 
-117.414 16.5663 2.37868 0 
-117.87 17.364 2.39001 0 
-118.331 18.1694 2.40154 0 
-22.8031 6.86747 0.477727 0 
-22.5304 6.93541 0.472905 0 
-22.1169 6.95596 0.465091 0 
-21.6492 6.95414 0.45614 0 
-20.918 6.86015 0.441606 0 
-20.4904 6.85851 0.433454 0 
-20.3132 6.93716 0.430592 0 
-19.9454 6.94753 0.423683 0 
-19.5566 6.94603 0.416317 0 
-19.181 6.94456 0.40922 0 
-18.818 6.94315 0.40237 0 
-18.2221 6.84972 0.390509 0 
-17.8932 6.85082 0.384348 0 
-17.7984 6.93921 0.383215 0 
-17.4798 6.93798 0.377257 0 
-17.1708 6.93679 0.371495 0 
-16.8711 6.93562 0.365917 0 
-16.5803 6.9345 0.360521 0 
-16.0818 6.84142 0.35058 0 
-15.8111 6.84038 0.345582 0 
-15.6174 6.86986 0.342249 0 
-15.5383 6.94839 0.341442 0 
-15.5242 7.05592 0.342074 0 
-15.5238 7.17019 0.34302 0 
-15.5233 7.28509 0.343985 0 
-15.5229 7.40065 0.344971 0 
-15.5224 7.51688 0.345971 0 
-15.522 7.63378 0.346992 0 
-15.5215 7.75138 0.348031 0 
-15.5211 7.8697 0.349089 0 
-15.5206 7.98874 0.350168 0 
-15.5201 8.10852 0.351265 0 
-15.5196 8.22905 0.352382 0 
-15.5192 8.35037 0.353521 0 
-15.5187 8.47248 0.35468 0 
-15.5182 8.59539 0.35586 0 
-16.3355 9.17863 0.375877 0 
-16.335 9.30978 0.377164 0 
-16.3345 9.44183 0.378474 0 
-16.334 9.5748 0.379807 0 
-16.3335 9.70871 0.381164 0 
-16.333 9.84361 0.382545 0 
-16.3324 9.97947 0.38395 0 
-16.3319 10.1164 0.38538 0 
-16.3314 10.2543 0.386835 0 
-16.3308 10.3932 0.388315 0 
-16.3303 10.5333 0.389822 0 
-16.3297 10.6744 0.391352 0 
-16.3292 10.8166 0.392912 0 
-16.3286 10.96 0.394498 0 
-16.3281 11.1046 0.396113 0 
-16.3275 11.2503 0.397754 0 
-16.3269 11.3973 0.399426 0 
-16.3264 11.5455 0.401126 0 
-16.3258 11.695 0.402857 0 
-16.3252 11.8458 0.404615 0 
-16.3246 11.9979 0.406405 0 
-16.324 12.1514 0.408227 0 
-16.3234 12.3062 0.41008 0 
-16.3228 12.4625 0.411964 0 
-16.3222 12.6202 0.413883 0 
-16.3216 12.7794 0.415835 0 
-16.3209 12.9402 0.417821 0 
-16.3203 13.1024 0.419841 0 
-16.3197 13.2663 0.421896 0 
-16.319 13.4318 0.423988 0 
-16.3184 13.5989 0.426117 0 
-16.3177 13.7677 0.428283 0 
-16.1219 13.7716 0.425338 0 
-15.9235 13.7708 0.422309 0 
-15.7279 13.77 0.419338 0 
-15.5805 13.8097 0.417648 0 
-15.4977 13.9058 0.417698 0 
-2.93531 2.66629 0.0795486 0 
-2.90615 2.67232 0.0791985 0 
-2.88488 2.68539 0.0790636 0 
-2.87496 2.70904 0.0792432 0 
-2.88105 2.74811 0.07987 0 
-15.4936 14.96 0.432047 0 
-15.4929 15.1428 0.434588 0 
-15.4921 15.3278 0.437176 0 
-15.4914 15.5151 0.439816 0 
-15.5839 15.7991 0.445165 0 
-15.5856 15.9946 0.447991 0 
-15.5924 16.198 0.451017 0 
-15.5994 16.4041 0.454101 0 
-15.6064 16.6131 0.457244 0 
-15.6135 16.825 0.460449 0 
-15.6208 17.0399 0.463717 0 
-15.6281 17.2579 0.467048 0 
-15.6356 17.479 0.470445 0 
-15.5892 17.6424 0.472278 0 
-15.7602 18.0565 0.480782 0 
-15.768 18.2892 0.484412 0 
-15.776 18.5256 0.488116 0 
-15.7841 18.7655 0.491895 0 
-15.7923 19.0093 0.495752 0 
-15.8006 19.2569 0.499689 0 
-15.6452 19.3062 0.498486 0 
-15.7078 19.6269 0.504282 0 
-15.7165 19.8849 0.508442 0 
-15.7253 20.1472 0.512691 0 
-15.7343 20.414 0.517031 0 
-15.7434 20.6854 0.521463 0 
-15.7527 20.9614 0.525993 0 
-15.7622 21.2423 0.530621 0 
-15.7718 21.5282 0.535352 0 
-15.7816 21.8193 0.540188 0 
-15.7916 22.1156 0.545133 0 
-15.8017 22.4175 0.550187 0 
-15.8121 22.725 0.555358 0 
-15.819 23.0331 0.56052 0 
-15.9441 23.5211 0.570022 0 
-15.9552 23.8491 0.575603 0 
-15.9664 24.1835 0.581315 0 
-15.9779 24.5246 0.587162 0 
-15.8767 24.6972 0.588972 0 
-15.8904 25.0528 0.595125 0 
-15.9026 25.4131 0.601372 0 
-15.9149 25.7809 0.607771 0 
-15.9276 26.1567 0.614328 0 
-15.9405 26.5407 0.621053 0 
-31.882 53.8235 1.2549 0 
-31.4551 53.8484 1.25099 0 
-31.3107 54.3592 1.2584 0 
-30.9064 54.4214 1.25546 0 
-23.3292 42.2708 0.968525 0 
-22.9063 42.1092 0.961592 0 
-22.4009 41.7847 0.951061 0 
-22.0517 41.7422 0.947019 0 
-21.7267 41.7409 0.943962 0 
-21.4037 41.7397 0.940971 0 
-21.069 41.711 0.937442 0 
-20.8163 41.8425 0.937502 0 
-20.4986 41.8413 0.934657 0 
-20.1827 41.8401 0.931864 0 
-19.8687 41.8389 0.929124 0 
-19.4831 41.6804 0.922948 0 
-19.1979 41.7311 0.921467 0 
-18.89 41.7299 0.918878 0 
-18.5839 41.7288 0.916344 0 
-18.2795 41.7276 0.913854 0 
-17.9766 41.7264 0.911412 0 
-17.6754 41.7252 0.909016 0 
-17.3542 41.6722 0.905539 0 
-17.1208 41.8283 0.906649 0 
-16.7993 41.7669 0.90308 0 
-16.5276 41.8259 0.902164 0 
-16.2098 41.7646 0.898692 0 
-15.9402 41.8237 0.897857 0 
-15.6091 41.7172 0.893512 0 
-15.3195 41.7161 0.891471 0 
-15.0312 41.715 0.889473 0 
-14.7443 41.7139 0.887517 0 
-14.735 42.5106 0.902542 0 
-14.7318 43.3532 0.918507 0 
-14.8323 44.5383 0.941683 0 
-14.7496 45.207 0.953901 0 
-14.7212 46.0704 0.970205 0 
-14.7174 47.0455 0.988844 0 
-14.7135 48.0589 1.00824 0 
-14.6611 48.9515 1.02507 0 
-14.809 50.5643 1.05694 0 
-14.7007 51.353 1.07152 0 
-14.9237 53.3583 1.11145 0 
-3.31648 12.1428 0.252509 0 
-3.23703 12.1425 0.252088 0 
-3.15781 12.1422 0.251677 0 
-3.07883 12.1419 0.251278 0 
-3.00016 12.1416 0.250888 0 
-2.92168 12.1413 0.250509 0 
-2.84344 12.141 0.250141 0 
-2.76543 12.1407 0.249783 0 
-2.68766 12.1404 0.249435 0 
-2.61008 12.1401 0.249097 0 
-2.53273 12.1398 0.24877 0 
-2.45555 12.1395 0.248452 0 
-2.37859 12.1392 0.248144 0 
-2.3018 12.1389 0.247847 0 
-2.2252 12.1386 0.247559 0 
-2.14875 12.1383 0.247282 0 
-2.0725 12.138 0.247014 0 
-1.99641 12.1377 0.246756 0 
-1.92043 12.1374 0.246507 0 
-1.84469 12.1371 0.246268 0 
-1.76898 12.1368 0.246039 0 
-1.69348 12.1366 0.245819 0 
-1.61812 12.1362 0.245609 0 
-1.54289 12.1359 0.245408 0 
-1.46773 12.1357 0.245217 0 
-1.39273 12.1354 0.245034 0 
-1.31781 12.1351 0.244862 0 
-1.24297 12.1348 0.2447 0 
-1.16828 12.1345 0.244546 0 
-1.09367 12.1342 0.2444 0 
-1.01914 12.1339 0.244265 0 
-0.944648 12.1336 0.244139 0 
-0.870312 12.1333 0.244022 0 
-0.795977 12.1331 0.243914 0 
-0.721719 12.1328 0.243815 0 
-0.647539 12.1325 0.243725 0 
-0.573398 12.1322 0.243645 0 
-0.499297 12.1319 0.243573 0 
-0.425234 12.1316 0.243511 0 
-0.351211 12.1313 0.243458 0 
-0.277266 12.131 0.243414 0 
-0.203281 12.1308 0.243378 0 
-0.129375 12.1305 0.243352 0 
-0.0553906 12.1302 0.243336 0 
0.0185156 12.1299 0.243328 0 
0.0924219 12.1296 0.243329 0 
0.166406 12.1293 0.243339 0 
0.240313 12.129 0.243359 0 
0.314219 12.1288 0.243386 0 
0.388203 12.1285 0.243423 0 
0.462227 12.1282 0.24347 0 
0.53625 12.1279 0.243525 0 
0.610312 12.1276 0.243589 0 
0.684375 12.1273 0.243662 0 
0.758594 12.127 0.243745 0 
0.832734 12.1267 0.243837 0 
0.907031 12.1265 0.243937 0 
0.981328 12.1262 0.244049 0 
0.633359 7.27446 0.146479 0 
0.631445 6.77417 0.13648 0 
0.629766 6.33779 0.127764 0 
0.634805 6.01604 0.121352 0 
0.671562 6.01298 0.121371 0 
0.708672 6.01284 0.121453 0 
0.745859 6.01269 0.12154 0 
0.783047 6.01253 0.121631 0 
0.820312 6.01239 0.121727 0 
0.857656 6.01226 0.121828 0 
0.895039 6.0121 0.121933 0 
0.9325 6.01196 0.122043 0 
0.970039 6.01181 0.122158 0 
1.00766 6.01167 0.122278 0 
1.04531 6.01151 0.122402 0 
1.08309 6.01138 0.122531 0 
1.12094 6.01122 0.122665 0 
1.15887 6.01108 0.122804 0 
1.19687 6.01093 0.122947 0 
1.23496 6.01077 0.123096 0 
1.27316 6.01063 0.12325 0 
1.31148 6.0105 0.123408 0 
1.34984 6.01032 0.123571 0 
1.38832 6.01019 0.123741 0 
1.42695 6.01005 0.123914 0 
1.46566 6.00987 0.124093 0 
1.50449 6.00976 0.124277 0 
1.5434 6.00958 0.124466 0 
1.58246 6.00942 0.12466 0 
1.62168 6.00929 0.12486 0 
1.66098 6.00913 0.125064 0 
1.70043 6.00897 0.125275 0 
1.74 6.00882 0.12549 0 
1.77973 6.00868 0.125711 0 
1.81957 6.00851 0.125938 0 
1.85957 6.00837 0.12617 0 
1.89973 6.00821 0.126407 0 
1.94004 6.00804 0.12665 0 
1.98047 6.0079 0.126899 0 
2.02109 6.00774 0.127154 0 
2.06187 6.00757 0.127414 0 
4.24023 12.1136 0.257457 0 
4.32316 12.1132 0.258005 0 
4.40648 12.1129 0.258566 0 
4.49012 12.1126 0.259138 0 
4.57414 12.1123 0.259723 0 
4.65855 12.1119 0.26032 0 
4.74336 12.1116 0.260928 0 
4.82855 12.1113 0.26155 0 
4.91418 12.1109 0.262186 0 
5.0002 12.1106 0.262834 0 
5.08668 12.1103 0.263494 0 
5.17359 12.1099 0.264168 0 
5.26094 12.1096 0.264854 0 
5.34875 12.1092 0.265555 0 
5.43703 12.1089 0.26627 0 
5.52578 12.1086 0.266997 0 
5.615 12.1082 0.267739 0 
5.7048 12.1079 0.268494 0 
5.79504 12.1075 0.269266 0 
5.88582 12.1072 0.27005 0 
5.97715 12.1068 0.270849 0 
6.06898 12.1065 0.271663 0 
6.16148 12.1061 0.272493 0 
6.25445 12.1058 0.273338 0 
6.34805 12.1054 0.274199 0 
6.57074 12.3466 0.280562 0 
6.66738 12.3462 0.281472 0 
6.76469 12.3458 0.282399 0 
6.86262 12.3454 0.283342 0 
6.96121 12.345 0.284301 0 
7.06051 12.3446 0.285278 0 
7.16047 12.3443 0.286272 0 
7.26113 12.3439 0.287283 0 
7.36254 12.3435 0.288313 0 
7.46465 12.3431 0.28936 0 
7.56754 12.3427 0.290427 0 
7.67117 12.3423 0.291514 0 
7.77559 12.3419 0.292618 0 
7.88082 12.3415 0.293741 0 
7.98684 12.3411 0.294884 0 
8.09371 12.3407 0.296047 0 
8.20141 12.3402 0.297228 0 
8.31 12.3398 0.298436 0 
8.41945 12.3394 0.299661 0 
8.52984 12.339 0.300905 0 
8.64113 12.3385 0.302175 0 
8.7534 12.3381 0.303465 0 
8.86656 12.3377 0.304777 0 
8.98078 12.3372 0.306112 0 
9.09601 12.3368 0.307471 0 
9.21223 12.3363 0.308853 0 
9.32953 12.3359 0.31026 0 
9.44793 12.3354 0.31169 0 
9.56738 12.335 0.313147 0 
9.68801 12.3345 0.314628 0 
9.80977 12.334 0.316135 0 
9.93266 12.3335 0.317667 0 
10.0568 12.3331 0.319228 0 
10.1822 12.3326 0.320816 0 
10.3088 12.3321 0.32243 0 
10.4367 12.3316 0.324075 0 
10.5659 12.3311 0.325748 0 
10.6965 12.3306 0.327451 0 
10.8284 12.3301 0.329183 0 
10.9618 12.3296 0.330948 0 
11.0966 12.329 0.332743 0 
11.2329 12.3285 0.33457 0 
11.3707 12.3279 0.33643 0 
11.51 12.3274 0.338328 0 
11.6509 12.3269 0.340252 0 
11.7934 12.3263 0.342213 0 
11.9376 12.3258 0.344212 0 
12.0835 12.3252 0.346245 0 
12.2311 12.3246 0.348316 0 
12.3805 12.324 0.350425 0 
12.5318 12.3234 0.352574 0 
12.6849 12.3229 0.354762 0 
12.8399 12.3223 0.356992 0 
12.9969 12.3217 0.359263 0 
13.1559 12.321 0.361575 0 
13.317 12.3204 0.363932 0 
13.4802 12.3198 0.366333 0 
13.6455 12.3191 0.368779 0 
13.8131 12.3185 0.371272 0 
13.983 12.3178 0.373814 0 
24.2328 21.0861 0.644381 0 
24.2317 20.8271 0.640966 0 
24.2308 20.5708 0.637612 0 
24.2298 20.3172 0.634315 0 
24.2288 20.0662 0.631077 0 
24.2279 19.8177 0.627893 0 
24.2269 19.5717 0.624767 0 
24.2259 19.3281 0.621691 0 
24.225 19.0869 0.61867 0 
24.4975 19.0608 0.622651 0 
24.6132 18.9112 0.622651 0 
24.728 18.7609 0.622651 0 
24.8419 18.6098 0.62265 0 
24.9548 18.4581 0.62265 0 
25.0668 18.3056 0.622649 0 
25.178 18.1525 0.622648 0 
21.5104 15.31 0.529634 0 
21.5096 15.1128 0.527341 0 
21.5089 14.9173 0.525083 0 
21.6549 14.8239 0.526434 0 
21.9389 14.8229 0.531132 0 
22.2281 14.8217 0.535942 0 
25.9289 17.0621 0.622645 0 
26.0324 16.9038 0.622645 0 
26.1348 16.7447 0.622644 0 
24.2104 15.3044 0.574563 0 
24.2096 15.0982 0.572349 0 
24.2087 14.8936 0.570174 0 
24.4104 14.8133 0.572795 0 
24.747 14.812 0.578566 0 
26.7295 15.7781 0.622641 0 
21.4996 12.5149 0.499028 0 
21.4989 12.3397 0.49726 0 
21.4982 12.1657 0.49552 0 
21.4975 11.993 0.49381 0 
21.5096 11.8284 0.492423 0 
21.8213 11.8272 0.497899 0 
22.1401 11.8259 0.503517 0 
27.4665 14.4566 0.622637 0 
27.554 14.2889 0.622637 0 
24.199 12.3625 0.545112 0 
24.1982 12.1767 0.543414 0 
24.1975 11.9921 0.541746 0 
24.2158 11.8179 0.540548 0 
24.5919 11.8164 0.547316 0 
28.8211 13.633 0.639572 0 
29.2777 13.6313 0.647847 0 
26.9177 12.3335 0.593952 0 
26.9169 12.1352 0.592292 0 
26.9162 11.938 0.590663 0 
27.0644 11.8069 0.592324 0 
27.5167 11.8051 0.600638 0 
31.7629 13.3982 0.691529 0 
31.762 13.1704 0.689747 0 
31.7611 12.9438 0.688007 0 
31.7603 12.7183 0.686296 0 
31.7594 12.4939 0.684623 0 
31.7585 12.2706 0.682979 0 
31.7577 12.0483 0.681369 0 
31.7568 11.8271 0.679791 0 
32.248 11.7868 0.688753 0 
32.8613 11.7844 0.700305 0 
33.4955 11.7819 0.712276 0 
34.1517 11.7794 0.724695 0 
34.8312 11.7768 0.737578 0 
35.5355 11.7741 0.750955 0 
36.2657 11.7712 0.764858 0 
37.0236 11.7683 0.779313 0 
37.8106 11.7652 0.794355 0 
38.6287 11.7621 0.810019 0 
39.4796 11.7588 0.826346 0 
44.667 13.008 0.933245 0 
45.4043 12.9231 0.946992 0 
46.4636 12.919 0.967422 0 
57.382 15.5787 1.19276 0 
57.3805 15.2034 1.19078 0 
57.3791 14.8294 1.18885 0 
58.4179 14.7187 1.20849 0 
59.9339 14.7128 1.23798 0 
61.5259 14.7066 1.26898 0 
62.604 14.5616 1.28936 0 
63.1306 14.2792 1.29839 0 
64.9362 14.2721 1.33371 0 
76.5161 16.329 1.56947 0 
76.5141 15.8417 1.56743 0 
76.5122 15.3556 1.56544 0 
76.5104 14.8708 1.56352 0 
76.5085 14.3871 1.56166 0 
76.5066 13.9046 1.55987 0 
76.5048 13.4231 1.55813 0 
76.5029 12.9427 1.55646 0 
76.5011 12.4633 1.55484 0 
76.4992 11.9849 1.5533 0 
76.4974 11.5074 1.55181 0 
76.7812 11.072 1.55617 0 
80.1452 11.059 1.62295 0 
83.8111 11.0448 1.69579 0 
26.8021 2.53933 0.540051 0 
111.058 9.83946 2.23657 0 
98.3205 -1.4981 1.97255 0 
110.796 -2.36362 2.22309 0 
111.182 -3.04983 2.23115 0 
77.5438 -10.2188 1.56898 0 
73.9561 -10.205 1.49762 0 
70.6803 -10.1923 1.43252 0 
63.4808 -9.54931 1.28775 0 
60.8889 -9.53927 1.23634 0 
58.4962 -9.52999 1.18891 0 
56.28 -9.52142 1.14503 0 
54.2218 -9.51343 1.10431 0 
48.4886 -8.81245 0.988628 0 
48.1747 -9.05905 0.983329 0 
48.142 -9.35702 0.983807 0 
43.8793 -8.80634 0.897776 0 
43.8782 -9.08464 0.898869 0 
43.8771 -9.36362 0.899999 0 
43.8761 -9.64333 0.901166 0 
43.8749 -9.92378 0.902373 0 
43.8739 -10.205 0.903612 0 
43.8728 -10.487 0.904889 0 
42.5678 -10.4497 0.87927 0 
41.7067 -10.5082 0.86279 0 
41.4788 -10.7201 0.859412 0 
41.3344 -10.9519 0.857785 0 
41.1694 -11.1771 0.855758 0 
40.9685 -11.3911 0.853013 0 
40.9268 -11.6486 0.853601 0 
40.49 -11.7915 0.845978 0 
34.8941 -10.393 0.730367 0 
34.0774 -10.3762 0.714582 0 
33.7987 -10.5169 0.710069 0 
33.6564 -10.698 0.708436 0 
33.5314 -10.8837 0.707193 0 
31.8288 -10.5459 0.672608 0 
31.0953 -10.5136 0.658425 0 
30.8746 -10.6491 0.655151 0 
30.6282 -10.7734 0.651304 0 
30.5459 -10.9541 0.650958 0 
30.4243 -11.1202 0.649799 0 
30.3031 -11.2857 0.648667 0 
30.1822 -11.4506 0.647566 0 
30.0399 -11.6066 0.64602 0 
30.0077 -11.8048 0.646861 0 
29.9171 -11.9802 0.646463 0 
29.3917 -11.9781 0.636672 0 
28.9111 -11.9883 0.627841 0 
28.5221 -12.0311 0.620971 0 
27.8182 -11.9345 0.60722 0 
24.0432 -10.4889 0.526202 0 
23.9153 -10.607 0.524812 0 
23.2558 -10.4846 0.511699 0 
23.1065 -10.5872 0.509856 0 
22.9304 -10.676 0.507396 0 
22.7097 -10.7422 0.503957 0 
22.7201 -10.917 0.505655 0 
22.6279 -11.043 0.505089 0 
22.4997 -11.1507 0.50379 0 
22.444 -11.294 0.504023 0 
22.3524 -11.4191 0.503515 0 
12.7042 -6.58812 0.287076 0 
22.1923 -11.6806 0.50308 0 
22.1664 -11.84 0.504119 0 
22.146 -12.0031 0.505308 0 
22.1453 -12.178 0.506977 0 
22.1446 -12.3539 0.508675 0 
22.1439 -12.5311 0.510404 0 
22.1432 -12.7095 0.512164 0 
22.1425 -12.8891 0.513954 0 
22.2467 -13.132 0.518224 0 
22.246 -13.315 0.520088 0 
22.2242 -13.4866 0.52149 0 
22.2446 -13.6851 0.523916 0 
22.2439 -13.8723 0.52588 0 
22.2431 -14.0608 0.527878 0 
22.2424 -14.2508 0.529912 0 
22.2417 -14.4423 0.531981 0 
22.2106 -14.6153 0.53336 0 
22.1353 -14.7598 0.533697 0 
22.1345 -14.955 0.535868 0 
22.1337 -15.1518 0.538073 0 
22.133 -15.3501 0.540317 0 
22.1322 -15.5502 0.542603 0 
22.1314 -15.752 0.544929 0 
22.1306 -15.9555 0.547294 0 
22.1299 -16.1608 0.549699 0 
22.129 -16.3679 0.552147 0 
22.1282 -16.5769 0.554637 0 
22.0757 -16.7486 0.555869 0 
22.2314 -17.0811 0.562403 0 
22.1851 -17.2616 0.563891 0 
22.2298 -17.5149 0.56772 0 
22.2289 -17.7348 0.570447 0 
22.1681 -17.9085 0.571676 0 
22.2272 -18.1812 0.576048 0 
22.2055 -18.3905 0.578378 0 
22.1206 -18.5486 0.579101 0 
22.1197 -18.7786 0.582062 0 
22.1188 -19.011 0.585076 0 
22.1179 -19.2458 0.588144 0 
51.9505 -45.764 1.38882 0 
51.9483 -46.3273 1.39628 0 
51.9461 -46.8968 1.40388 0 
51.9438 -47.4726 1.41161 0 
51.9416 -48.0547 1.41948 0 
51.9393 -48.6434 1.42749 0 
51.937 -49.2387 1.43564 0 
51.9347 -49.841 1.44394 0 
14.3667 -13.9567 0.401801 0 
14.192 -13.956 0.399284 0 
14.0193 -13.9554 0.396813 0 
13.8488 -13.9547 0.394386 0 
13.6804 -13.954 0.392004 0 
13.514 -13.9534 0.389665 0 
13.3496 -13.9528 0.387368 0 
13.1111 -13.8718 0.382894 0 
13.0354 -13.9612 0.383162 0 
12.933 -14.0218 0.382657 0 
12.7752 -14.0212 0.380508 0 
12.6191 -14.0206 0.378398 0 
12.4648 -14.02 0.376324 0 
12.3121 -14.0194 0.374287 0 
12.1611 -14.0188 0.372286 0 
11.8821 -13.8671 0.366326 0 
11.7845 -13.9241 0.365947 0 
11.6581 -13.9462 0.364635 0 
11.514 -13.9456 0.362779 0 
9.67168 -11.8607 0.307004 0 
9.55152 -11.8603 0.305478 0 
9.50508 -11.9509 0.306314 0 
9.50449 -12.1008 0.308667 0 
10.8146 -13.943 0.353969 0 
10.6788 -13.9424 0.352297 0 
10.5442 -13.9419 0.350654 0 
10.4108 -13.9414 0.349038 0 
10.2787 -13.9409 0.347451 0 
10.1478 -13.9404 0.34589 0 
10.018 -13.9399 0.344356 0 
9.88941 -13.9393 0.342851 0 
9.76191 -13.9388 0.341372 0 
9.63547 -13.9384 0.339916 0 
9.51016 -13.9379 0.338482 0 
9.38586 -13.9374 0.337072 0 
9.26258 -13.9369 0.33569 0 
9.14031 -13.9364 0.334332 0 
9.01902 -13.936 0.332997 0 
8.89867 -13.9355 0.331683 0 
8.77934 -13.935 0.33039 0 
8.66086 -13.9346 0.329118 0 
8.54328 -13.9341 0.327874 0 
8.4266 -13.9337 0.326649 0 
8.28305 -13.8867 0.324347 0 
8.19643 -13.9339 0.324309 0 
8.094 -13.9537 0.3236 0 
7.98055 -13.9533 0.322453 0 
7.86781 -13.9528 0.321328 0 
7.7559 -13.9524 0.320224 0 
7.64477 -13.952 0.31914 0 
7.53434 -13.9516 0.318073 0 
7.42465 -13.9511 0.317025 0 
7.31568 -13.9507 0.315998 0 
6.1207 -11.847 0.267496 0 
6.02938 -11.8466 0.266653 0 
5.93859 -11.8463 0.265825 0 
5.87156 -11.893 0.266076 0 
5.87086 -12.0764 0.269369 0 
6.66582 -13.9269 0.309726 0 
6.56164 -13.9264 0.308822 0 
6.45801 -13.9261 0.307935 0 
6.355 -13.9257 0.307064 0 
6.25258 -13.9252 0.306209 0 
6.1507 -13.9249 0.30537 0 
6.04938 -13.9245 0.304547 0 
5.94859 -13.9241 0.303741 0 
5.84836 -13.9237 0.30295 0 
5.74863 -13.9233 0.302173 0 
5.66174 -13.9533 0.30207 0 
5.66078 -14.1987 0.30663 0 
5.6598 -14.4516 0.311342 0 
5.65879 -14.7125 0.316213 0 
5.65775 -14.9817 0.321251 0 
5.65668 -15.2595 0.326464 0 
5.60436 -15.4059 0.328855 0 
5.54805 -15.5453 0.331107 0 
5.71756 -16.334 0.347156 0 
5.65227 -16.4686 0.349278 0 
5.54441 -16.4809 0.348815 0 
5.64939 -17.1378 0.361984 0 
5.64803 -17.4914 0.36872 0 
5.6466 -17.8585 0.375726 0 
5.64514 -18.2398 0.383017 0 
5.64359 -18.6362 0.390612 0 
5.64199 -19.0486 0.398529 0 
5.6298 -19.4419 0.406031 0 
5.53254 -19.5511 0.407607 0 
5.62619 -20.3548 0.42363 0 
5.52891 -20.4882 0.425717 0 
5.63291 -21.3911 0.443737 0 
5.63082 -21.925 0.454093 0 
5.72262 -22.8596 0.472718 0 
5.57467 -22.859 0.471995 0 
5.42713 -22.8585 0.471291 0 
5.28006 -22.8579 0.470607 0 
5.1334 -22.8573 0.469943 0 
4.98715 -22.8568 0.469299 0 
4.84131 -22.8562 0.468672 0 
4.69582 -22.8556 0.468065 0 
4.55072 -22.8551 0.467477 0 
4.40598 -22.8545 0.466908 0 
4.2616 -22.854 0.466357 0 
4.11754 -22.8534 0.465823 0 
4.09314 -23.5392 0.479284 0 
4.0898 -24.4001 0.496296 0 
4.08623 -25.3245 0.514582 0 
4.08238 -26.3195 0.534286 0 
4.0782 -27.3938 0.55558 0 
4.07371 -28.5575 0.578666 0 
4.06881 -29.8222 0.603779 0 
4.06346 -31.2013 0.631188 0 
4.05762 -32.7119 0.661235 0 
4.05117 -34.3736 0.694311 0 
4.04406 -36.2103 0.7309 0 
4.03615 -38.2516 0.771592 0 
4.02732 -40.5333 0.817107 0 
4.01736 -43.1015 0.86837 0 
4.00609 -46.0134 0.926528 0 
3.99318 -49.3437 0.993079 0 
5.79109 -77.4271 1.55754 0 
5.31672 -77.4252 1.55682 0 
4.84271 -77.4234 1.55615 0 
4.36906 -77.4216 1.55555 0 
3.89582 -77.4197 1.55501 0 
3.5117 -79.4273 1.59487 0 
4.19004 -109.952 2.20724 0 
3.54111 -110.637 2.22053 0 
2.77873 -107.259 2.15234 0 
2.10879 -106.458 2.13597 0 
1.46447 -106.791 2.14245 0 
0.797188 -104.645 2.09927 0 
0.159414 -104.584 2.09797 0 
-0.479844 -104.982 2.10597 0 
-1.12303 -105.3 2.11245 0 
-1.75889 -104.94 2.10542 0 
-2.37182 -103.764 2.08206 0 
-3.00992 -103.949 2.08608 0 
-3.67346 -104.786 2.10329 0 
-4.30473 -104.587 2.09978 0 
-4.94146 -104.546 2.09954 0 
-5.52469 -103.506 2.07929 0 
-6.18609 -103.987 2.08967 0 
-6.86004 -104.562 2.102 0 
-7.51605 -104.782 2.10734 0 
-8.14256 -104.581 2.10425 0 
-8.79682 -104.733 2.10834 0 
-9.66305 -107.208 2.15932 0 
-10.7499 -111.653 2.25011 0 
-11.3948 -111.239 2.24314 0 
-11.748 -108.18 2.18286 0 
-12.3755 -107.831 2.17728 0 
-12.9466 -107.044 2.16294 0 
-13.7198 -107.916 2.18222 0 
-14.0991 -105.744 2.14 0 
-14.7129 -105.439 2.13559 0 
-15.1329 -103.823 2.10468 0 
-15.9185 -104.735 2.12512 0 
-16.7388 -105.789 2.14853 0 
-17.3689 -105.598 2.14676 0 
-18.0014 -105.428 2.14549 0 
-18.6377 -105.283 2.14481 0 
-19.9869 -109.029 2.22358 0 
-21.2329 -111.974 2.28623 0 
-21.9375 -111.958 2.28859 0 
-22.4398 -110.934 2.27042 0 
-22.1699 -106.263 2.17754 0 
-22.7397 -105.766 2.17017 0 
-23.1399 -104.524 2.14752 0 
-23.8381 -104.651 2.1531 0 
-24.4971 -104.597 2.155 0 
-24.9938 -103.863 2.14298 0 
-25.4741 -103.092 2.13025 0 
-26.928 -106.193 2.19767 0 
-28.7311 -110.474 2.28983 0 
-29.4522 -110.478 2.29359 0 
-30.1276 -110.306 2.2938 0 
-23.0602 -82.45 1.71743 0 
-23.1047 -80.7098 1.68409 0 
-23.1476 -79.0357 1.65207 0 
-23.1888 -77.4241 1.6213 0 
-22.8877 -74.7582 1.56837 0 
-23.2668 -74.3743 1.56326 0 
-23.3038 -72.9297 1.53586 0 
-23.2974 -71.4059 1.50673 0 
-22.9608 -68.9463 1.45775 0 
-23.3865 -68.8225 1.45812 0 
-23.406 -67.5262 1.43365 0 
-23.4248 -66.2725 1.41004 0 
-23.4423 -65.0574 1.3872 0 
-23.4704 -63.9118 1.3658 0 
-23.4872 -62.7724 1.34449 0 
-23.5034 -61.6681 1.32387 0 
-23.606 -60.8209 1.30875 0 
-24.0361 -60.8272 1.312 0 
-24.4682 -60.8336 1.31533 0 
-24.9026 -60.84 1.31873 0 
-25.3392 -60.8464 1.32219 0 
-25.7782 -60.8528 1.32572 0 
-26.2196 -60.8593 1.32932 0 
-26.6632 -60.8658 1.33299 0 
-27.1095 -60.8724 1.33672 0 
-17.1926 -37.9802 0.836308 0 
-17.1902 -37.3671 0.825101 0 
-17.1879 -36.7702 0.814219 0 
-17.1856 -36.1889 0.803648 0 
-10.8852 -22.5658 0.502586 0 
-10.8839 -22.2159 0.496263 0 
-10.8825 -21.8748 0.490115 0 
-10.7974 -21.3761 0.480404 0 
-10.9175 -21.2904 0.479966 0 
-10.9295 -20.9975 0.474858 0 
-10.8263 -20.4935 0.464943 0 
-10.8764 -20.2879 0.461775 0 
-10.8752 -19.9922 0.456542 0 
-10.8741 -19.7031 0.451446 0 
-10.873 -19.4204 0.446479 0 
-10.872 -19.1439 0.441637 0 
-10.8709 -18.8733 0.436914 0 
-10.8699 -18.6084 0.432308 0 
-10.8689 -18.349 0.427812 0 
-10.7842 -17.9555 0.420167 0 
-10.8978 -17.8967 0.420328 0 
-10.9166 -17.684 0.416892 0 
-10.9157 -17.4438 0.412789 0 
-10.7805 -16.9965 0.403751 0 
-10.8632 -16.8984 0.402988 0 
-10.8624 -16.6728 0.399179 0 
-10.8615 -16.4514 0.395456 0 
-10.8607 -16.2341 0.391817 0 
-10.8599 -16.0207 0.388257 0 
-10.859 -15.8112 0.384774 0 
-10.8708 -15.6235 0.381766 0 
-10.9649 -15.5556 0.381758 0 
-11.1909 -15.6725 0.386314 0 
-11.3353 -15.6719 0.387994 0 
-11.4766 -15.6654 0.389591 0 
-11.638 -15.6843 0.391784 0 
-11.7865 -15.6837 0.393556 0 
-11.9363 -15.6831 0.39536 0 
-12.0874 -15.6825 0.397192 0 
-10.8642 -13.9192 0.354174 0 
-10.9698 -13.8792 0.354872 0 
-12.5496 -15.6807 0.40289 0 
-12.7007 -15.6727 0.404667 0 
-12.8295 -15.6359 0.405728 0 
-13.0143 -15.6654 0.408545 0 
-13.176 -15.6648 0.410616 0 
-13.3393 -15.6642 0.412723 0 
-13.5043 -15.6635 0.414867 0 
-13.671 -15.6629 0.41705 0 
-13.8208 -15.641 0.418715 0 
-14.0098 -15.6616 0.421531 0 
-14.182 -15.6609 0.423832 0 
-14.356 -15.6602 0.426173 0 
-14.5321 -15.6595 0.428558 0 
-14.71 -15.6589 0.430982 0 
-14.89 -15.6582 0.433456 0 
-15.0721 -15.6575 0.435972 0 
-15.202 -15.601 0.436972 0 
-15.4428 -15.656 0.441141 0 
-15.6314 -15.6553 0.443795 0 
-15.752 -15.585 0.444499 0 
-16.0786 -15.7153 0.451016 0 
-16.2751 -15.7145 0.45383 0 
-16.474 -15.7137 0.456699 0 
-16.562 -15.6061 0.456479 0 
-16.8135 -15.6507 0.460795 0 
-15.1484 -13.9294 0.41283 0 
-15.2613 -13.8626 0.413605 0 
-17.3602 -15.577 0.467865 0 
-17.6539 -15.6474 0.473227 0 
-17.8712 -15.6466 0.476484 0 
-18.0915 -15.6457 0.479804 0 
-18.2031 -15.5493 0.480252 0 
-18.5415 -15.644 0.48664 0 
-18.7714 -15.6431 0.490159 0 
-18.8886 -15.5466 0.490744 0 
-19.2413 -15.6413 0.497425 0 
-19.4816 -15.6404 0.501165 0 
-19.7254 -15.6394 0.504974 0 
-19.954 -15.6236 0.508364 0 
-20.2246 -15.6375 0.512843 0 
-20.4799 -15.6365 0.51689 0 
-20.5896 -15.5225 0.517257 0 
-96.1052 -67.9625 2.36124 0 
-22.2312 -15.5189 0.543871 0 
-22.2338 -15.32 0.541641 0 
-20.4702 -13.9216 0.496636 0 
-22.2389 -14.9271 0.537294 0 
-22.2414 -14.7329 0.535175 0 
-22.2438 -14.5403 0.533088 0 
-22.2462 -14.3491 0.53104 0 
-22.2485 -14.1593 0.529026 0 
-22.2508 -13.971 0.527046 0 
-22.253 -13.784 0.525099 0 
-22.2552 -13.5984 0.523187 0 
-98.8811 -57.156 2.2911 0 
-99.4911 -56.7025 2.29718 0 
-96.7821 -54.3799 2.22694 0 
-96.6622 -53.5401 2.21663 0 
-97.174 -53.0522 2.22092 0 
-97.3353 -52.3729 2.21727 0 
-98.2284 -52.0839 2.23034 0 
-98.3893 -51.4036 2.22682 0 
-100.876 -51.9225 2.27589 0 
-104.613 -53.0422 2.35288 0 
-104.854 -52.3634 2.35106 0 
-105.848 -52.0564 2.36621 0 
-105.983 -51.3231 2.36218 0 
-98.8757 -42.063 2.15548 0 
-98.9522 -41.3853 2.15162 0 
-96.7949 -39.7917 2.09939 0 
-96.8789 -39.1378 2.09599 0 
-16.2826 -6.46279 0.351393 0 
-97.1772 -37.8872 2.09229 0 
-98.137 -37.5741 2.108 0 
-98.1387 -36.8905 2.10317 0 
-99.7776 -36.8141 2.13345 0 
-100.611 -36.4268 2.14649 0 
-104.868 -37.2464 2.23241 0 
-105.769 -36.8423 2.24676 0 
-107.417 -36.6839 2.27699 0 
-108.777 -36.4096 2.30107 0 
-106.588 -31.3934 2.22898 0 
-106.589 -30.689 2.22505 0 
-100.316 -27.5633 2.08693 0 
-99.0127 -26.5574 2.05642 0 
-99.3474 -25.9991 2.06004 0 
-96.617 -24.6565 2.00026 0 
-96.9522 -24.1137 2.00412 0 
-96.7456 -23.4371 1.99686 0 
-102.744 -24.2284 2.11759 0 
-99.2479 -22.7664 2.04263 0 
-98.6138 -21.9892 2.02679 0 
-99.5663 -21.5655 2.04363 0 
-100.669 -21.1628 2.06357 0 
-106.958 -21.8051 2.18973 0 
-107.512 -21.2365 2.19838 0 
-99.3195 -17.7381 2.02388 0 
-98.8873 -13.9524 2.00335 0 
-98.8794 -13.3371 2.00149 0 
-97.5141 -12.5484 1.97227 0 
-97.4573 -11.9378 1.96962 0 
-96.5115 -11.2253 1.94908 0 
-96.1525 -10.5901 1.9405 0 
-96.2241 -10.0049 1.94068 0 
-98.4893 -9.63405 1.98514 0 
-98.3344 -9.01425 1.98088 0 
-98.5565 -8.42922 1.98427 0 
-98.7052 -7.83638 1.98627 0 
-98.304 -7.20191 1.97727 0 
-24.9007 2.43573 0.316084 31 
-24.7375 2.57209 0.314206 31 
-118.709 13.0745 1.50878 0 
-117.645 13.6834 1.49629 0 
-116.598 14.2824 1.48405 0 
-116.514 14.9934 1.48412 0 
-116.962 15.7762 1.49102 0 
-117.414 16.5663 1.49805 0 
-117.87 17.364 1.5052 0 
-118.331 18.1694 1.51245 0 
-42.0746 10.7374 0.548582 32 
-112.351 31.6079 1.47449 0 
-111.234 32.7616 1.46495 0 
-22.8031 6.86749 0.300864 0 
-22.5304 6.93541 0.297819 0 
-22.1169 6.95594 0.292901 0 
-21.6492 6.95414 0.287272 0 
-20.918 6.86017 0.278117 0 
-20.4904 6.85851 0.272984 0 
-20.3132 6.93716 0.271181 0 
-19.9454 6.94753 0.26683 0 
-19.5566 6.94603 0.262195 0 
-19.181 6.94456 0.257719 0 
-18.818 6.94315 0.253405 0 
-18.2221 6.84972 0.245935 0 
-17.8932 6.85082 0.242055 0 
-17.7984 6.93921 0.241342 0 
-17.4798 6.93798 0.23759 0 
-17.1708 6.93677 0.233961 0 
-16.8711 6.93562 0.23045 0 
-16.5804 6.93448 0.227051 0 
-16.0818 6.84144 0.220791 0 
-15.8111 6.84038 0.217643 0 
-15.6174 6.86986 0.215547 0 
-15.5383 6.94839 0.215022 0 
-15.5242 7.05592 0.215436 0 
-15.5238 7.17019 0.216031 0 
-15.5233 7.28509 0.216636 0 
-15.5229 7.40064 0.217255 0 
-15.5224 7.51688 0.217887 0 
-15.522 7.63378 0.21853 0 
-15.5215 7.75138 0.219184 0 
-15.5211 7.8697 0.21985 0 
-15.5206 7.98874 0.220532 0 
-15.5201 8.10852 0.221223 0 
-15.5196 8.22905 0.221925 0 
-15.5192 8.35037 0.222643 0 
-15.5187 8.47248 0.223373 0 
-15.5182 8.59539 0.224115 0 
-16.3355 9.17862 0.236723 0 
-16.335 9.30978 0.237533 0 
-16.3345 9.44183 0.238358 0 
-16.334 9.5748 0.239198 0 
-16.3335 9.70871 0.24005 0 
-16.333 9.84361 0.24092 0 
-16.3324 9.97947 0.241805 0 
-16.3319 10.1164 0.242705 0 
-16.3314 10.2543 0.243622 0 
-16.3308 10.3932 0.244554 0 
-16.3303 10.5333 0.245502 0 
-16.3297 10.6744 0.246468 0 
-16.3292 10.8166 0.24745 0 
-16.3286 10.96 0.24845 0 
-16.3281 11.1046 0.249467 0 
-16.3275 11.2503 0.250502 0 
-16.3269 11.3973 0.251554 0 
-16.3264 11.5455 0.252625 0 
-16.3258 11.695 0.253711 0 
-16.3252 11.8458 0.25482 0 
-16.3246 11.9979 0.255947 0 
-16.324 12.1514 0.257094 0 
-16.3234 12.3062 0.258261 0 
-16.3228 12.4625 0.259448 0 
-16.3222 12.6202 0.260657 0 
-16.3216 12.7794 0.261886 0 
-16.3209 12.9402 0.263137 0 
-16.3203 13.1024 0.264409 0 
-16.3197 13.2663 0.265703 0 
-16.319 13.4318 0.267021 0 
-16.3184 13.5989 0.268362 0 
-16.3177 13.7677 0.269724 0 
-16.1219 13.7716 0.26787 0 
-15.9235 13.7708 0.265963 0 
-15.7279 13.77 0.264092 0 
-15.5805 13.8097 0.263027 0 
-15.4977 13.9058 0.26306 0 
-2.935 2.66602 0.0500932 0 
-2.90602 2.67221 0.0498761 0 
-2.88477 2.68528 0.049791 0 
-2.87486 2.70895 0.049904 0 
-2.88078 2.74787 0.0502966 0 
-15.4936 14.96 0.272094 0 
-15.4929 15.1428 0.273696 0 
-15.4921 15.3278 0.275328 0 
-15.4914 15.5151 0.27699 0 
-15.5839 15.799 0.280359 0 
-15.5856 15.9946 0.282139 0 
-15.5924 16.198 0.284045 0 
-15.5994 16.4041 0.285984 0 
-15.6064 16.6131 0.287964 0 
-15.6135 16.825 0.289983 0 
-15.6208 17.0399 0.29204 0 
-15.6281 17.2579 0.294138 0 
-15.6356 17.479 0.296278 0 
-15.5892 17.6424 0.297432 0 
-15.7602 18.0565 0.302787 0 
-15.768 18.2893 0.305074 0 
-15.776 18.5256 0.307407 0 
-15.7841 18.7655 0.309786 0 
-15.7923 19.0093 0.312216 0 
-15.8006 19.2569 0.314695 0 
-15.6452 19.3062 0.313936 0 
-15.7078 19.6268 0.317589 0 
-15.7165 19.8849 0.320207 0 
-15.7253 20.1472 0.322884 0 
-15.7343 20.414 0.325617 0 
-15.7434 20.6854 0.328409 0 
-15.7527 20.9614 0.331261 0 
-15.7622 21.2423 0.334176 0 
-15.7718 21.5282 0.337155 0 
-15.7816 21.8193 0.340201 0 
-15.7916 22.1156 0.343315 0 
-15.8017 22.4175 0.346499 0 
-15.8121 22.725 0.349757 0 
-15.819 23.0331 0.353008 0 
-15.9441 23.5211 0.358992 0 
-15.9551 23.8491 0.362506 0 
-15.9664 24.1835 0.366104 0 
-15.9779 24.5247 0.369787 0 
-15.8767 24.6972 0.370932 0 
-15.8904 25.0529 0.374802 0 
-15.9025 25.413 0.378734 0 
-15.9149 25.7809 0.382763 0 
-15.9276 26.1567 0.386894 0 
-15.9405 26.5407 0.39113 0 
-31.767 53.6292 0.787467 0 
-31.3731 53.708 0.785807 0 
-31.1978 54.1633 0.789667 0 
-31.2071 54.9509 0.798364 0 
-23.3292 42.2708 0.609966 0 
-22.9063 42.1092 0.605603 0 
-22.4009 41.7847 0.598962 0 
-22.0517 41.7422 0.596416 0 
-21.7267 41.7409 0.594494 0 
-21.4037 41.7397 0.592608 0 
-21.069 41.711 0.59038 0 
-20.8163 41.8425 0.590422 0 
-20.4986 41.8413 0.588631 0 
-20.1827 41.8401 0.586872 0 
-19.8687 41.8389 0.585146 0 
-19.4831 41.6804 0.581255 0 
-19.1978 41.7311 0.580323 0 
-18.89 41.7299 0.578691 0 
-18.5839 41.7288 0.577092 0 
-18.2795 41.7276 0.575529 0 
-17.9766 41.7264 0.573991 0 
-17.6754 41.7252 0.572482 0 
-17.3542 41.6722 0.570294 0 
-17.1209 41.8282 0.570989 0 
-16.7993 41.7669 0.568743 0 
-16.5276 41.8259 0.568167 0 
-16.2098 41.7646 0.565979 0 
-15.9402 41.8237 0.565454 0 
-15.6091 41.7172 0.562717 0 
-15.3195 41.7161 0.561433 0 
-15.0312 41.715 0.560179 0 
-14.7442 41.7139 0.558947 0 
-14.735 42.5106 0.568409 0 
-14.7318 43.3532 0.578464 0 
-14.8323 44.5383 0.59306 0 
-14.7496 45.207 0.600755 0 
-14.7212 46.0704 0.611027 0 
-14.7175 47.0455 0.622757 0 
-14.7135 48.0589 0.634974 0 
-14.6611 48.9515 0.645573 0 
-14.809 50.5643 0.66564 0 
-14.7008 51.353 0.674827 0 
-14.9242 53.3604 0.7 0 
-3.31648 12.1428 0.159027 0 
-3.23703 12.1425 0.158761 0 
-3.15781 12.1422 0.158503 0 
-3.07887 12.1419 0.15825 0 
-3.00016 12.1416 0.158005 0 
-2.92168 12.1413 0.157766 0 
-2.84344 12.141 0.157534 0 
-2.76543 12.1407 0.157309 0 
-2.68766 12.1404 0.15709 0 
-2.61008 12.1401 0.156877 0 
-2.53273 12.1398 0.156671 0 
-2.45555 12.1395 0.156471 0 
-2.37859 12.1392 0.156277 0 
-2.3018 12.1389 0.15609 0 
-2.2252 12.1386 0.155909 0 
-2.14875 12.1383 0.155734 0 
-2.0725 12.138 0.155565 0 
-1.99641 12.1377 0.155402 0 
-1.92043 12.1374 0.155246 0 
-1.84469 12.1371 0.155097 0 
-1.76898 12.1368 0.154952 0 
-1.69348 12.1366 0.154814 0 
-1.61812 12.1362 0.154682 0 
-1.54289 12.1359 0.154555 0 
-1.46773 12.1357 0.154434 0 
-1.39273 12.1354 0.15432 0 
-1.31781 12.1351 0.154211 0 
-1.24297 12.1348 0.154108 0 
-1.16828 12.1345 0.154011 0 
-1.09367 12.1342 0.15392 0 
-1.01914 12.1339 0.153834 0 
-0.944648 12.1336 0.153755 0 
-0.870312 12.1333 0.153681 0 
-0.795977 12.1331 0.153614 0 
-0.721719 12.1328 0.153552 0 
-0.647539 12.1325 0.153496 0 
-0.573398 12.1322 0.153445 0 
-0.499297 12.1319 0.1534 0 
-0.425234 12.1316 0.15336 0 
-0.351211 12.1313 0.153327 0 
-0.277266 12.131 0.153299 0 
-0.203281 12.1308 0.153277 0 
-0.129375 12.1305 0.15326 0 
-0.0553906 12.1302 0.153249 0 
0.0185156 12.1299 0.153244 0 
0.0924219 12.1296 0.153245 0 
0.166328 12.1293 0.153251 0 
0.240313 12.129 0.153263 0 
0.314219 12.1288 0.15328 0 
0.388203 12.1285 0.153305 0 
0.462227 12.1282 0.153334 0 
0.53625 12.1279 0.153369 0 
0.610312 12.1276 0.153409 0 
0.684375 12.1273 0.153455 0 
0.758594 12.127 0.153507 0 
0.832734 12.1267 0.153565 0 
0.547266 7.31672 0.0926949 0 
0.545 6.73451 0.0853595 0 
0.543105 6.23769 0.0791028 0 
0.552969 5.93261 0.075275 0 
0.588945 5.92704 0.0752484 0 
0.62543 5.92688 0.0752937 0 
0.661953 5.92677 0.0753416 0 
0.698555 5.92663 0.0753934 0 
0.735156 5.92647 0.0754471 0 
0.771836 5.92632 0.0755035 0 
0.808594 5.92618 0.0755631 0 
0.845391 5.92604 0.0756256 0 
0.882266 5.92591 0.0756909 0 
0.91918 5.92575 0.075759 0 
0.956172 5.92562 0.0758302 0 
0.993242 5.92548 0.0759042 0 
1.03035 5.92532 0.0759816 0 
1.06758 5.92519 0.076062 0 
1.10488 5.92503 0.0761449 0 
1.14227 5.92489 0.0762309 0 
1.17973 5.92476 0.0763199 0 
1.21727 5.9246 0.0764123 0 
1.25496 5.92446 0.0765076 0 
1.29266 5.92431 0.076606 0 
1.33051 5.92417 0.0767073 0 
1.36844 5.92401 0.0768117 0 
1.40648 5.92386 0.0769199 0 
1.44465 5.92372 0.0770305 0 
1.48293 5.92358 0.0771448 0 
1.52129 5.92341 0.0772624 0 
1.5598 5.92327 0.077384 0 
1.59844 5.92312 0.0775078 0 
1.63719 5.92298 0.0776347 0 
1.67609 5.92284 0.0777652 0 
1.71508 5.92267 0.0778987 0 
1.75422 5.92251 0.0780362 0 
1.79352 5.92235 0.0781764 0 
1.83293 5.9222 0.0783206 0 
1.8725 5.92206 0.0784677 0 
1.91223 5.9219 0.0786185 0 
1.95215 5.92177 0.0787736 0 
1.99215 5.92159 0.0789314 0 
2.03234 5.92145 0.079093 0 
2.0727 5.92128 0.079258 0 
2.11324 5.92114 0.0794267 0 
2.1558 5.92613 0.079669 0 
4.49012 12.1126 0.163201 0 
4.57414 12.1123 0.163568 0 
4.65855 12.1119 0.163945 0 
4.74336 12.1116 0.164327 0 
4.82855 12.1113 0.164721 0 
4.91418 12.1109 0.16512 0 
5.0002 12.1106 0.165528 0 
5.08668 12.1103 0.165944 0 
5.17359 12.1099 0.166368 0 
5.26094 12.1096 0.166802 0 
5.34875 12.1092 0.167242 0 
5.43703 12.1089 0.167692 0 
5.52578 12.1086 0.16815 0 
5.615 12.1082 0.168617 0 
5.70477 12.1079 0.169096 0 
5.79504 12.1075 0.16958 0 
5.88582 12.1072 0.170075 0 
5.97715 12.1068 0.170577 0 
6.06898 12.1065 0.17109 0 
6.16148 12.1061 0.171612 0 
6.25445 12.1058 0.172144 0 
6.34805 12.1054 0.172685 0 
6.5707 12.3466 0.176693 0 
6.66738 12.3462 0.177267 0 
6.76469 12.3458 0.177849 0 
6.86262 12.3454 0.178442 0 
6.96121 12.345 0.179046 0 
7.06051 12.3446 0.179661 0 
7.16047 12.3443 0.180289 0 
7.26113 12.3439 0.180926 0 
7.36254 12.3435 0.181574 0 
7.46465 12.3431 0.182234 0 
7.56754 12.3427 0.182908 0 
7.67117 12.3423 0.18359 0 
7.77559 12.3419 0.184285 0 
7.88082 12.3415 0.184993 0 
7.98684 12.3411 0.185712 0 
8.09371 12.3407 0.186445 0 
8.20141 12.3402 0.187192 0 
8.31 12.3398 0.187954 0 
8.41945 12.3394 0.188721 0 
8.52984 12.339 0.189506 0 
8.64113 12.3385 0.190305 0 
8.7534 12.3381 0.191117 0 
8.86656 12.3377 0.191943 0 
8.98078 12.3372 0.192785 0 
9.09601 12.3368 0.193639 0 
9.21223 12.3363 0.19451 0 
9.32953 12.3359 0.195395 0 
9.44793 12.3354 0.196298 0 
9.56738 12.3349 0.197215 0 
9.68801 12.3345 0.198147 0 
9.80973 12.334 0.199096 0 
9.93266 12.3335 0.200061 0 
10.0568 12.3331 0.201044 0 
10.1822 12.3326 0.202044 0 
10.3088 12.3321 0.203061 0 
10.4367 12.3316 0.204097 0 
10.5659 12.3311 0.20515 0 
10.6965 12.3306 0.206222 0 
10.8284 12.3301 0.207312 0 
10.9618 12.3296 0.208424 0 
11.0966 12.329 0.209554 0 
11.2329 12.3285 0.210701 0 
11.3707 12.3279 0.21186 0 
11.51 12.3274 0.213064 0 
11.6509 12.3269 0.214282 0 
11.7934 12.3263 0.215518 0 
11.9376 12.3258 0.216778 0 
12.0835 12.3252 0.218059 0 
12.2311 12.3246 0.219364 0 
12.3805 12.324 0.22069 0 
12.5318 12.3234 0.222044 0 
12.6849 12.3229 0.223424 0 
12.8399 12.3223 0.224828 0 
12.9969 12.3217 0.226257 0 
13.1559 12.321 0.227714 0 
13.317 12.3204 0.229197 0 
13.4802 12.3198 0.23071 0 
13.6455 12.3191 0.23225 0 
13.8131 12.3185 0.23382 0 
13.983 12.3178 0.235421 0 
24.2328 21.0861 0.40582 0 
24.4554 21.0193 0.407396 0 
24.7577 21.0181 0.410296 0 
80.8322 67.7796 1.3327 0 
80.829 66.9422 1.32589 0 
80.8258 66.1133 1.3192 0 
24.2269 19.5717 0.393466 0 
24.226 19.3281 0.391529 0 
24.225 19.087 0.38963 0 
24.5177 19.0766 0.392475 0 
24.8269 19.0754 0.395548 0 
27.6883 21.0068 0.439082 0 
31.8033 23.8248 0.502023 0 
31.8021 23.5227 0.499732 0 
32.0334 23.3931 0.501116 0 
32.4445 23.3915 0.505308 0 
21.5104 15.31 0.333553 0 
21.5096 15.1128 0.332107 0 
21.5089 14.9173 0.330685 0 
21.6549 14.8239 0.331535 0 
21.939 14.8229 0.334494 0 
22.2281 14.8217 0.337533 0 
27.7218 18.2418 0.41924 0 
27.7208 18.0001 0.417567 0 
27.7199 17.7603 0.415914 0 
24.2104 15.3044 0.36185 0 
24.2096 15.0982 0.360456 0 
24.2088 14.8935 0.359085 0 
24.4104 14.8133 0.360729 0 
24.747 14.812 0.364363 0 
27.7145 16.3595 0.406579 0 
21.4995 12.5149 0.314282 0 
21.4989 12.3397 0.313166 0 
21.4982 12.1657 0.31207 0 
21.4975 11.993 0.310993 0 
21.5096 11.8284 0.310119 0 
21.8213 11.8272 0.313567 0 
22.1401 11.8259 0.317106 0 
28.1169 14.7989 0.401412 0 
28.5344 14.7973 0.40608 0 
24.199 12.3625 0.343302 0 
24.1982 12.1767 0.342233 0 
24.1975 11.9921 0.341182 0 
24.2158 11.8179 0.340422 0 
24.5919 11.8164 0.34469 0 
31.2602 14.7868 0.436878 0 
31.7554 14.7848 0.44253 0 
26.9177 12.3334 0.374063 0 
26.9169 12.1352 0.373017 0 
26.9161 11.938 0.371991 0 
27.0644 11.8069 0.373038 0 
27.5167 11.8051 0.378273 0 
35.5089 14.9783 0.486877 0 
35.6193 14.7699 0.487155 0 
38.8164 15.8191 0.529544 0 
38.8153 15.5435 0.528227 0 
39.2121 15.4257 0.53233 0 
31.7585 12.2706 0.430125 0 
31.7577 12.0483 0.42911 0 
31.7568 11.8271 0.428115 0 
32.248 11.7868 0.433765 0 
41.4455 14.8628 0.556251 0 
41.4445 14.578 0.555038 0 
35.4982 12.2439 0.474396 0 
35.4973 12.002 0.473397 0 
35.5355 11.774 0.472939 0 
41.4401 13.4507 0.550422 0 
38.8029 12.3339 0.514385 0 
38.8019 12.0737 0.513385 0 
38.8009 11.8145 0.51241 0 
39.4797 11.7588 0.520421 0 
44.667 13.008 0.587746 0 
45.4044 12.9231 0.596405 0 
46.4636 12.919 0.609266 0 
57.1242 15.5087 0.747803 0 
