//X,Y,Z,ObjIdx
31.33183479,-1.05059564,-2.40172195,0.000000
31.32484245,-1.24153316,-2.40172243,0.000000
31.31673813,-1.43239260,-2.40172267,0.000000
31.30742073,-1.62319326,-2.40172315,0.000000
31.29699135,-1.81395507,-2.40172362,0.000000
31.28533173,-2.00467777,-2.40172386,0.000000
31.27253914,-2.19530272,-2.40172434,0.000000
31.25855446,-2.38582993,-2.40172458,0.000000
31.24347496,-2.57629871,-2.40172505,0.000000
31.22718620,-2.76665044,-2.40172529,0.000000
31.20972633,-2.95688462,-2.40172577,0.000000
31.19113159,-3.14702153,-2.40172625,0.000000
31.17136574,-3.33709955,-2.40172672,0.000000
31.15052605,-3.52698231,-2.40172696,0.000000
31.12847519,-3.71674800,-2.40172744,0.000000
31.10523415,-3.90639639,-2.40172768,0.000000
31.08082008,-4.09590816,-2.40172815,0.000000
31.05531120,-4.28520489,-2.40172839,0.000000
31.02863121,-4.47438478,-2.40172887,0.000000
31.00074196,-4.66338873,-2.40172911,0.000000
30.97173691,-4.85227537,-2.40172958,0.000000
30.94164085,-5.04090786,-2.40173006,0.000000
30.91033173,-5.22936535,-2.40173030,0.000000
30.87788963,-5.41766596,-2.40173054,0.000000
30.84429550,-5.60571289,-2.40173101,0.000000
30.80958939,-5.79358387,-2.40173125,0.000000
30.77369118,-5.98124027,-2.40173173,0.000000
30.35683441,-6.09243155,-2.37205315,0.000000
29.45835876,-6.09916973,-2.30471206,0.000000
29.42847633,-6.28024387,-2.30532694,0.000000
29.30445290,-6.44069338,-2.29864097,0.000000
29.26468658,-6.61918926,-2.29864120,0.000000
29.22378922,-6.79741192,-2.29864168,0.000000
29.18179703,-6.97538090,-2.29864192,0.000000
29.13880730,-7.15309572,-2.29864216,0.000000
29.09468651,-7.33053684,-2.29864264,0.000000
29.04949188,-7.50774384,-2.29864287,0.000000
29.00320244,-7.68461895,-2.29864311,0.000000
28.95585823,-7.86123991,-2.29864359,0.000000
28.90740204,-8.03754902,-2.29864383,0.000000
28.85788918,-8.21354485,-2.29864407,0.000000
23.36960793,-6.80571270,-1.86474943,0.000000
23.24494171,-6.92338848,-1.85813749,0.000000
23.15941429,-7.05184555,-1.85470104,0.000000
20.08400345,-6.24938440,-1.61143005,0.000000
19.65560532,-6.24772453,-1.58008206,0.000000
19.54148483,-6.34280252,-1.57398415,0.000000
19.54097557,-6.47456026,-1.57709312,0.000000
28.42335892,-9.61020470,-2.29864645,0.000000
27.36044884,-9.43704033,-2.21729636,0.000000
27.34751892,-9.61940384,-2.22095966,0.000000
27.34769440,-9.80717754,-2.22578406,0.000000
25.83523369,-9.44288063,-2.10733461,0.000000
25.83365250,-9.62116146,-2.11195159,0.000000
25.83222580,-9.80032158,-2.11667633,0.000000
25.83128929,-9.98047829,-2.12154531,0.000000
25.83042908,-10.16145515,-2.12651825,0.000000
25.82945251,-10.34331036,-2.13159323,0.000000
25.82857323,-10.52602482,-2.13677192,0.000000
25.82765579,-10.70967770,-2.14205170,0.000000
25.82667923,-10.89420891,-2.14744186,0.000000
25.82578087,-11.07967758,-2.15293932,0.000000
24.04316330,-10.48885727,-2.00962329,0.000000
23.91531181,-10.60702133,-2.00430202,0.000000
23.25583839,-10.48461914,-1.95435286,0.000000
23.10650253,-10.58715820,-1.94718933,0.000000
22.93037033,-10.67604446,-1.93779504,0.000000
22.70970726,-10.74219704,-1.92464197,0.000000
22.72007751,-10.91702080,-1.93112695,0.000000
22.62788963,-11.04295921,-1.92897201,0.000000
22.49976540,-11.15071297,-1.92378795,0.000000
22.44402313,-11.29397392,-1.92488980,0.000000
22.35234261,-11.41913033,-1.92296398,0.000000
12.69839859,-6.58510733,-1.09587169,0.000000
22.19228554,-11.68057632,-1.92130184,0.000000
22.16646385,-11.84004879,-1.92527425,0.000000
22.14601517,-12.00315380,-1.92981577,0.000000
22.14531136,-12.17797852,-1.93618858,0.000000
22.14464760,-12.35397434,-1.94267607,0.000000
22.14394569,-12.53114223,-1.94927943,0.000000
22.14324188,-12.70956039,-1.95600021,0.000000
22.14253807,-12.88916969,-1.96284115,0.000000
22.24675751,-13.13198185,-1.97913718,0.000000
22.24605370,-13.31504822,-1.98625696,0.000000
22.22421837,-13.48657227,-1.99162138,0.000000
22.24460793,-13.68518543,-2.00087404,0.000000
22.24390602,-13.87231445,-2.00837636,0.000000
22.24316406,-14.06084919,-2.01601028,0.000000
22.24244118,-14.25082970,-2.02377391,0.000000
22.24167824,-14.44229507,-2.03168035,0.000000
22.21060562,-14.61532211,-2.03692794,0.000000
22.13531113,-14.75987244,-2.03824186,0.000000
22.13455009,-14.95502853,-2.04652667,0.000000
22.13378906,-15.15178680,-2.05495739,0.000000
22.13300705,-15.35018539,-2.06353116,0.000000
22.13222694,-15.55024338,-2.07225728,0.000000
22.13144493,-15.75204086,-2.08113265,0.000000
22.13068390,-15.95553684,-2.09016323,0.000000
22.12988281,-16.16084862,-2.09934902,0.000000
22.12906265,-16.36795807,-2.10869694,0.000000
22.12828064,-16.57694244,-2.11820674,0.000000
9.62048817,-7.29894495,-0.92515332,0.000000
22.16156197,-17.02746964,-2.14110613,0.000000
22.07410049,-17.17526245,-2.14273429,0.000000
22.07328033,-17.39161110,-2.15290189,0.000000
22.07246017,-17.61002922,-2.16324711,0.000000
22.07156181,-17.83053589,-2.17377186,0.000000
22.07072258,-18.05323219,-2.18448257,0.000000
22.06988144,-18.27815437,-2.19538116,0.000000
22.12062454,-18.54858398,-2.21163273,0.000000
22.11974525,-18.77862167,-2.22294617,0.000000
22.11882782,-19.01102448,-2.23445392,0.000000
22.11792946,-19.24584961,-2.24616933,0.000000
22.74160194,-20.03340721,-2.32186341,0.000000
22.61911964,-20.17164993,-2.32186341,0.000000
22.49578094,-20.30912971,-2.32186365,0.000000
22.37160110,-20.44586945,-2.32186389,0.000000
22.24656105,-20.58180618,-2.32186389,0.000000
22.12070274,-20.71700096,-2.32186413,0.000000
21.99408150,-20.85139656,-2.32186413,0.000000
21.86660194,-20.98506737,-2.32186437,0.000000
14.36671829,-13.95666981,-1.53450453,0.000000
14.19195271,-13.95600510,-1.52489340,0.000000
14.01931572,-13.95536137,-1.51545656,0.000000
13.84878922,-13.95469666,-1.50619078,0.000000
13.68039036,-13.95401382,-1.49709380,0.000000
13.51394463,-13.95338821,-1.48816085,0.000000
13.34953117,-13.95274353,-1.47938836,0.000000
13.11109352,-13.87182617,-1.46231234,0.000000
13.03542900,-13.96123981,-1.46333170,0.000000
12.93300724,-14.02184582,-1.46139681,0.000000
12.77517509,-14.02124023,-1.45319152,0.000000
12.61910152,-14.02063465,-1.44513154,0.000000
12.33031178,-13.86879826,-1.42171204,0.000000
10.07667923,-11.47401333,-1.16990101,0.000000
9.95308590,-11.47352505,-1.16364610,0.000000
9.83074188,-11.47307587,-1.15750039,0.000000
9.70970726,-11.47258759,-1.15146148,0.000000
9.58994102,-11.47213840,-1.14552772,0.000000
9.47140598,-11.47166920,-1.13969719,0.000000
9.35404301,-11.47122002,-1.13396704,0.000000
9.23785114,-11.47077084,-1.12833643,0.000000
9.12281227,-11.47032166,-1.12280273,0.000000
9.00890636,-11.46987247,-1.11736429,0.000000
8.89607430,-11.46944332,-1.11201990,0.000000
8.78431606,-11.46901321,-1.10676682,0.000000
8.67363262,-11.46858406,-1.10160255,0.000000
8.56392574,-11.46817398,-1.09652972,0.000000
8.45523453,-11.46774387,-1.09154201,0.000000
8.34755802,-11.46731377,-1.08664048,0.000000
8.24081993,-11.46690369,-1.08182204,0.000000
8.13501930,-11.46649361,-1.07708442,0.000000
8.03013611,-11.46608353,-1.07242954,0.000000
7.92615223,-11.46567345,-1.06785417,0.000000
7.82839823,-11.47315407,-1.06408954,0.000000
7.75833988,-11.52068329,-1.06408954,0.000000
7.68800783,-11.56773376,-1.06408954,0.000000
7.61732388,-11.61436462,-1.06408954,0.000000
7.54644537,-11.66059589,-1.06408954,0.000000
7.47523403,-11.70636654,-1.06408954,0.000000
7.40376949,-11.75170898,-1.06408954,0.000000
7.31468725,-11.76876926,-1.06157911,0.000000
7.21542931,-11.76837826,-1.05755806,0.000000
7.11687469,-11.76798820,-1.05360675,0.000000
7.01906252,-11.76759720,-1.04972315,0.000000
6.92195320,-11.76724625,-1.04590905,0.000000
4.02019501,-6.93051720,-0.61381638,214.000000
3.95980453,-6.92328119,-0.61102754,214.000000
3.91472650,-6.94237280,-0.61059445,214.000000
3.88179684,-6.98303699,-0.61208022,214.000000
6.44667959,-11.76539040,-1.02780068,0.000000
6.35355473,-11.76503849,-1.02436745,0.000000
6.26101542,-11.76468754,-1.02099490,0.000000
6.16914034,-11.76433563,-1.01768219,0.000000
6.07783175,-11.76397419,-1.01442838,0.000000
5.98712873,-11.76360321,-1.01123476,0.000000
5.89695311,-11.76327133,-1.00809646,0.000000
5.80734348,-11.76291943,-1.00501490,0.000000
5.71828127,-11.76256847,-1.00198960,0.000000
5.70728493,-11.92424774,-1.01277828,0.000000
5.70656252,-12.11172867,-1.02572906,0.000000
5.70582008,-12.30405235,-1.03905296,0.000000
5.70505857,-12.50147438,-1.05276930,0.000000
5.70425749,-12.70417976,-1.06689143,0.000000
5.70345688,-12.91239262,-1.08143842,0.000000
5.70263672,-13.12639618,-1.09642982,0.000000
5.70179653,-13.34639645,-1.11188316,0.000000
5.70091772,-13.57270432,-1.12782168,0.000000
5.69999981,-13.80561447,-1.14426696,0.000000
5.66171885,-13.95329094,-1.15362895,0.000000
5.66078091,-14.19871998,-1.17104578,0.000000
5.65980434,-14.45164967,-1.18903971,0.000000
5.65876961,-14.71250916,-1.20764077,0.000000
5.65773439,-14.98165035,-1.22687960,0.000000
5.65664053,-15.25952148,-1.24678791,0.000000
5.65554667,-15.54657173,-1.26740229,0.000000
5.65441370,-15.84329033,-1.28875947,0.000000
5.65320301,-16.15018463,-1.31089687,0.000000
5.65199184,-16.46784210,-1.33386087,0.000000
5.65072250,-16.79682541,-1.35769343,0.000000
5.64941406,-17.13780212,-1.38244486,0.000000
5.64800787,-17.49143600,-1.40816736,0.000000
5.64658213,-17.85848618,-1.43492031,0.000000
5.64511728,-18.23981476,-1.46276760,0.000000
5.64355469,-18.63618088,-1.49176896,0.000000
5.64199209,-19.04866219,-1.52200651,0.000000
5.64033175,-19.47817421,-1.55355227,0.000000
5.63859367,-19.92592812,-1.58649254,0.000000
5.63677740,-20.39311409,-1.62092423,0.000000
5.63488245,-20.88096619,-1.65694094,0.000000
5.63289070,-21.39108276,-1.69466650,0.000000
5.63083982,-21.92498970,-1.73421240,0.000000
5.72259760,-22.85959816,-1.80534756,0.000000
5.57464838,-22.85903358,-1.80258572,0.000000
5.42710924,-22.85846710,-1.79990172,0.000000
5.28005838,-22.85786057,-1.79728949,0.000000
5.13337898,-22.85733414,-1.79475152,0.000000
4.98712873,-22.85676765,-1.79228723,0.000000
4.84128904,-22.85620117,-1.78989625,0.000000
4.69580078,-22.85563469,-1.78757751,0.000000
4.55070305,-22.85506821,-1.78533077,0.000000
4.40595675,-22.85452080,-1.78315735,0.000000
4.26158190,-22.85395432,-1.78105354,0.000000
4.11751938,-22.85340691,-1.77902091,0.000000
4.09314442,-23.53918839,-1.83043158,0.000000
4.08980465,-24.40008736,-1.89540350,0.000000
4.08623028,-25.32446289,-1.96523643,0.000000
4.08238268,-26.31944275,-2.04048204,0.000000
4.07820320,-27.39383698,-2.12181067,0.000000
4.07371092,-28.55747032,-2.20997596,0.000000
4.09691381,-30.02828979,-2.32182121,0.000000
3.91388655,-30.05270386,-2.32182097,0.000000
3.73062491,-30.07600594,-2.32182074,0.000000
3.54724598,-30.09813499,-2.32182074,0.000000
3.36376953,-30.11922836,-2.32182050,0.000000
3.18013668,-30.13916969,-2.32182026,0.000000
2.99640608,-30.15795898,-2.32182002,0.000000
2.81257796,-30.17565346,-2.32181978,0.000000
2.62861323,-30.19223595,-2.32181954,0.000000
2.44457030,-30.20768547,-2.32181931,0.000000
2.26044917,-30.22202110,-2.32181931,0.000000
2.07621098,-30.23524284,-2.32181907,0.000000
1.89191401,-30.24735260,-2.32181883,0.000000
1.70757806,-30.25829124,-2.32181859,0.000000
1.52310538,-30.26815414,-2.32181835,0.000000
1.33865237,-30.27684593,-2.32181811,0.000000
1.15408206,-30.28448105,-2.32181787,0.000000
0.96949214,-30.29094696,-2.32181764,0.000000
0.78488278,-30.29627800,-2.32181740,0.000000
0.60023439,-30.30047798,-2.32181716,0.000000
0.41558594,-30.30360222,-2.32181692,0.000000
0.23089842,-30.30553627,-2.32181668,0.000000
0.04621094,-30.30639648,-2.32181644,0.000000
-0.13851562,-30.30612183,-2.32181621,0.000000
-0.32318360,-30.30471611,-2.32181597,0.000000
-0.50787109,-30.30217743,-2.32181573,0.000000
-0.69253904,-30.29852486,-2.32181549,0.000000
-0.87714839,-30.29375839,-2.32181525,0.000000
-1.06177735,-30.28784180,-2.32181501,0.000000
-1.24628901,-30.28079033,-2.32181478,0.000000
-1.43083978,-30.27262688,-2.32181454,0.000000
-1.61527336,-30.26336861,-2.32181430,0.000000
-1.79968750,-30.25295830,-2.32181382,0.000000
-1.98406243,-30.24143410,-2.32181358,0.000000
-2.16830063,-30.22875977,-2.32181334,0.000000
-2.35248041,-30.21500969,-2.32181311,0.000000
-2.53658199,-30.20004845,-2.32181287,0.000000
-2.72058582,-30.18403244,-2.32181263,0.000000
-2.90447259,-30.16690445,-2.32181239,0.000000
-3.08824205,-30.14862251,-2.32181215,0.000000
-3.27191401,-30.12924767,-2.32181168,0.000000
-3.45550776,-30.10875893,-2.32181144,0.000000
-3.63892579,-30.08713722,-2.32181120,0.000000
-3.82220697,-30.06440353,-2.32181096,0.000000
-4.00535154,-30.04055595,-2.32181048,0.000000
-4.18837881,-30.01559448,-2.32181025,0.000000
-4.37121105,-29.98950195,-2.32181001,0.000000
-4.55386686,-29.96229362,-2.32180953,0.000000
-4.73634768,-29.93393517,-2.32180953,0.000000
-4.91871071,-29.90450096,-2.32180929,0.000000
-5.10089827,-29.87399292,-2.32180882,0.000000
-5.28283215,-29.84233284,-2.32180858,0.000000
-5.46460915,-29.80959892,-2.32180834,0.000000
-5.64617157,-29.77573204,-2.32180786,0.000000
-5.82753897,-29.74077034,-2.32180762,0.000000
-6.00867176,-29.70469666,-2.32180715,0.000000
-6.18960905,-29.66754723,-2.32180715,0.000000
-6.37027311,-29.62928581,-2.32180667,0.000000
-6.55074215,-29.58991051,-2.32180619,0.000000
-6.73091793,-29.54938316,-2.32180595,0.000000
-6.91087866,-29.50776291,-2.32180572,0.000000
-7.09056616,-29.46508789,-2.32180548,0.000000
-7.27001953,-29.42135620,-2.32180500,0.000000
-7.44916010,-29.37651253,-2.32180452,0.000000
-7.62804651,-29.33055687,-2.32180429,0.000000
-7.80666018,-29.28350449,-2.32180405,0.000000
-7.98494101,-29.23539925,-2.32180381,0.000000
-8.16298771,-29.18620110,-2.32180333,0.000000
-8.34070301,-29.13589859,-2.32180285,0.000000
-8.51812458,-29.08452988,-2.32180262,0.000000
-8.69519520,-29.03208923,-2.32180238,0.000000
-8.87195301,-28.97856331,-2.32180190,0.000000
-9.04837894,-28.92395401,-2.32180166,0.000000
-9.22453117,-28.86827087,-2.32180119,0.000000
-9.40027332,-28.81151390,-2.32180095,0.000000
-9.57566357,-28.75368118,-2.32180047,0.000000
-9.75072289,-28.69479370,-2.32180023,0.000000
-9.92541027,-28.63485336,-2.32179999,0.000000
-10.09972668,-28.57382774,-2.32179952,0.000000
-10.27369118,-28.51173782,-2.32179904,0.000000
-10.44724560,-28.44860268,-2.32179880,0.000000
-10.62038994,-28.38442230,-2.32179832,0.000000
-10.79318333,-28.31911087,-2.32179809,0.000000
-10.96556664,-28.25281143,-2.32179785,0.000000
-11.13753891,-28.18546867,-2.32179737,0.000000
-11.30912113,-28.11706924,-2.32179689,0.000000
-11.48023415,-28.04762650,-2.32179642,0.000000
-11.65095711,-27.97713852,-2.32179618,0.000000
-11.82122993,-27.90561485,-2.32179570,0.000000
-11.99111271,-27.83306503,-2.32179546,0.000000
-12.16046810,-27.75947189,-2.32179499,0.000000
-12.32941341,-27.68479347,-2.32179475,0.000000
-12.49789047,-27.60914993,-2.32179427,0.000000
-12.66593742,-27.53248978,-2.32179403,0.000000
-12.83347607,-27.45476532,-2.32179356,0.000000
-13.00048828,-27.37601471,-2.32179308,0.000000
-10.88521481,-22.56575203,-1.91942108,0.000000
-10.88386726,-22.21594620,-1.89527309,0.000000
-10.88253880,-21.87482452,-1.87179303,0.000000
-10.88124943,-21.54202080,-1.84895384,0.000000
-10.88000011,-21.21723557,-1.82673728,0.000000
-10.87876892,-20.90015602,-1.80511379,0.000000
-10.87755871,-20.59045792,-1.78405428,0.000000
-10.87638664,-20.28787994,-1.76354980,0.000000
-10.87523460,-19.99223518,-1.74357688,0.000000
-10.87414074,-19.70314407,-1.72411370,0.000000
-10.87302685,-19.42045784,-1.70514297,0.000000
-10.87195301,-19.14389610,-1.68664896,0.000000
-10.87089825,-18.87327194,-1.66861141,0.000000
-10.86988258,-18.60835838,-1.65101624,0.000000
-10.86888695,-18.34893608,-1.63384640,0.000000
-10.86791039,-18.09488297,-1.61709058,0.000000
-10.86693382,-17.84596634,-1.60073495,0.000000
-10.86599541,-17.60204124,-1.58476770,0.000000
-10.86507797,-17.36289024,-1.56916785,0.000000
-10.86415958,-17.12842751,-1.55393231,0.000000
-10.86326122,-16.89843750,-1.53904617,0.000000
-10.86238289,-16.67281151,-1.52449811,0.000000
-10.86152363,-16.45142555,-1.51027858,0.000000
-10.86068344,-16.23411179,-1.49637473,0.000000
-10.85988235,-16.02075195,-1.48278344,0.000000
-10.85906219,-15.81121063,-1.46948946,0.000000
-10.85320282,-15.59818363,-1.45581067,0.000000
-10.85273457,-15.39649391,-1.44313407,0.000000
-10.85226536,-15.19829082,-1.43072903,0.000000
-10.85197258,-15.00370121,-1.41860747,0.000000
-10.85187435,-14.81260681,-1.40676844,0.000000
-10.85179710,-14.62471676,-1.39517820,0.000000
-10.85171890,-14.43987274,-1.38382733,0.000000
-10.85162067,-14.25799751,-1.37271023,0.000000
-10.85154247,-14.07903290,-1.36182320,0.000000
-10.85146427,-13.90288067,-1.35115457,0.000000
-10.94972610,-13.85385704,-1.35285151,0.000000
-11.08714867,-13.85332966,-1.35937250,0.000000
-11.22589779,-13.85278320,-1.36600792,0.000000
-11.36597633,-13.85223579,-1.37275827,0.000000
-11.50753880,-13.85170841,-1.37962830,0.000000
-11.65046883,-13.85114193,-1.38661921,0.000000
-11.79488277,-13.85059547,-1.39373469,0.000000
-11.94074154,-13.85000992,-1.40097535,0.000000
-12.08820248,-13.84944344,-1.40834320,0.000000
-12.23718739,-13.84887695,-1.41584074,0.000000
-12.38777351,-13.84829044,-1.42347312,0.000000
-12.53999996,-13.84770489,-1.43124139,0.000000
-12.69390583,-13.84709930,-1.43914878,0.000000
-12.84953117,-13.84649372,-1.44719803,0.000000
-13.00687504,-13.84588814,-1.45539057,0.000000
-13.16607380,-13.84528255,-1.46373308,0.000000
-13.32708931,-13.84465790,-1.47222579,0.000000
-13.48997974,-13.84403324,-1.48087502,0.000000
-13.65480423,-13.84338856,-1.48968041,0.000000
-13.82162094,-13.84272385,-1.49864686,0.000000
-13.99046803,-13.84208012,-1.50777948,0.000000
-14.16140556,-13.84141541,-1.51708031,0.000000
-14.33443356,-13.84075165,-1.52655375,0.000000
-14.50966740,-13.84006786,-1.53620481,0.000000
-14.68710899,-13.83938408,-1.54603386,0.000000
-14.86685467,-13.83868122,-1.55604768,0.000000
-15.04898357,-13.83797836,-1.56625211,0.000000
-15.23343754,-13.83726501,-1.57664764,0.000000
-15.42044926,-13.83654308,-1.58724511,0.000000
-15.60998058,-13.83580017,-1.59804380,0.000000
-15.80210876,-13.83505821,-1.60905051,0.000000
-15.99691391,-13.83429623,-1.62027371,0.000000
-16.19445229,-13.83353519,-1.63171136,0.000000
-16.39482307,-13.83275318,-1.64337492,0.000000
-16.59808540,-13.83197212,-1.65526879,0.000000
-16.80429649,-13.83117199,-1.66739738,0.000000
-17.01357460,-13.83035088,-1.67976773,0.000000
-17.22599602,-13.82953072,-1.69238627,0.000000
-17.44165993,-13.82871056,-1.70526063,0.000000
-17.66060448,-13.82784176,-1.71839774,0.000000
-17.88296890,-13.82698250,-1.73180330,0.000000
-18.10882759,-13.82610321,-1.74548233,0.000000
-18.33828163,-13.82522392,-1.75944543,0.000000
-18.57146454,-13.82432556,-1.77370012,0.000000
-18.80847549,-13.82340813,-1.78825676,0.000000
-19.04941368,-13.82247066,-1.80312085,0.000000
-19.29435539,-13.82151318,-1.81830084,0.000000
-19.54351425,-13.82055664,-1.83380783,0.000000
-19.79697227,-13.81958008,-1.84965265,0.000000
-20.05482292,-13.81856441,-1.86584270,0.000000
-20.31724548,-13.81754875,-1.88238776,0.000000
-20.58435440,-13.81653309,-1.89929974,0.000000
-20.86035156,-13.81813431,-1.91695917,0.000000
-21.13792992,-13.81739235,-1.93469238,0.000000
-21.42109299,-13.81687450,-1.95286620,0.000000
-21.70902252,-13.81600571,-1.97140646,0.000000
-22.09257698,-13.87166977,-1.99847305,0.000000
-22.39771461,-13.87364197,-2.01841116,0.000000
-25.86003876,-15.80104446,-2.32173705,0.000000
-25.95585823,-15.64317322,-2.32173657,0.000000
-26.05068207,-15.48471642,-2.32173610,0.000000
-26.14456940,-15.32566357,-2.32173562,0.000000
-26.23746109,-15.16602516,-2.32173514,0.000000
-26.32941437,-15.00582027,-2.32173467,0.000000
-26.42037010,-14.84508801,-2.32173419,0.000000
-26.51033211,-14.68379879,-2.32173371,0.000000
-26.59929657,-14.52194309,-2.32173324,0.000000
-26.68730354,-14.35956001,-2.32173276,0.000000
-26.77431488,-14.19665051,-2.32173228,0.000000
-26.86031151,-14.03323174,-2.32173181,0.000000
-26.94535065,-13.86927700,-2.32173133,0.000000
-27.02937508,-13.70479488,-2.32173085,0.000000
-27.11240196,-13.53983402,-2.32173038,0.000000
-27.19441414,-13.37434578,-2.32172990,0.000000
-27.27540970,-13.20836926,-2.32172942,0.000000
-27.35540962,-13.04189396,-2.32172918,0.000000
-27.43437386,-12.87493134,-2.32172871,0.000000
-27.51234245,-12.70752907,-2.32172823,0.000000
-27.58923721,-12.53959942,-2.32172775,0.000000
-27.66515541,-12.37123966,-2.32172728,0.000000
-27.74003792,-12.20241165,-2.32172680,0.000000
-27.81388664,-12.03312492,-2.32172632,0.000000
-24.20351601,-10.29651356,-2.01508164,0.000000
-27.95843697,-11.69323254,-2.32172537,0.000000
-28.02917862,-11.52261734,-2.32172489,0.000000
-25.47507668,-10.29161072,-2.10492754,0.000000
-16.27517509,-6.45986319,-1.34151292,0.000000
-28.23515511,-11.00827122,-2.32172370,0.000000
-28.30171776,-10.83600521,-2.32172322,0.000000
-28.36722565,-10.66331005,-2.32172275,0.000000
-28.43169785,-10.49022484,-2.32172227,0.000000
-28.49503899,-10.31676769,-2.32172179,0.000000
-28.55738258,-10.14291000,-2.32172155,0.000000
-28.33333969,-9.86931610,-2.29857254,0.000000
-28.39296722,-9.69645500,-2.29857230,0.000000
-28.45152283,-9.52323246,-2.29857183,0.000000
-28.50900269,-9.34964848,-2.29857135,0.000000
-28.56542969,-9.17572212,-2.29857087,0.000000
-28.62081909,-9.00149441,-2.29857039,0.000000
-28.67507744,-8.82688427,-2.29857016,0.000000
-28.72835922,-8.65195274,-2.29856968,0.000000
-28.78054619,-8.47672844,-2.29856920,0.000000
-28.83167839,-8.30118179,-2.29856873,0.000000
-28.88171768,-8.12532234,-2.29856825,0.000000
-28.93070221,-7.94916010,-2.29856777,0.000000
-28.97857285,-7.77267551,-2.29856730,0.000000
-29.02540970,-7.59594727,-2.29856682,0.000000
-29.07115173,-7.41893530,-2.29856658,0.000000
-29.11581993,-7.24161100,-2.29856610,0.000000
-29.15941429,-7.06402349,-2.29856563,0.000000
-29.20191383,-6.88619137,-2.29856515,0.000000
-29.24335861,-6.70813465,-2.29856467,0.000000
-29.28367043,-6.52978516,-2.29856420,0.000000
-29.32294846,-6.35118151,-2.29856396,0.000000
-29.36111259,-6.17236328,-2.29856348,0.000000
-29.39818382,-5.99331045,-2.29856300,0.000000
-29.62468719,-5.85169888,-2.31344080,0.000000
-30.56566429,-5.84423828,-2.38409781,0.000000
-30.82601547,-5.69950199,-2.40165043,0.000000
-30.86015511,-5.51152325,-2.40164995,0.000000
-30.89318275,-5.32335949,-2.40164948,0.000000
-30.92507744,-5.13500977,-2.40164900,0.000000
-30.95576096,-4.94645500,-2.40164852,0.000000
-30.98527336,-4.75767565,-2.40164804,0.000000
-31.01369095,-4.56875944,-2.40164781,0.000000
-31.04097557,-4.37967777,-2.40164733,0.000000
-31.06710815,-4.19041014,-2.40164685,0.000000
-31.09203148,-4.00101566,-2.40164638,0.000000
-31.11585808,-3.81145501,-2.40164590,0.000000
-31.13851547,-3.62174797,-2.40164542,0.000000
-31.15999985,-3.43193340,-2.40164495,0.000000
-31.18033218,-3.24197268,-2.40164471,0.000000
-31.19949150,-3.05189443,-2.40164423,0.000000
-31.21747971,-2.86168933,-2.40164375,0.000000
-31.23437500,-2.67136717,-2.40164328,0.000000
-31.25003815,-2.48101568,-2.40164280,0.000000
-31.26457024,-2.29051757,-2.40164256,0.000000
-31.27791023,-2.09993148,-2.40164208,0.000000
-31.29013634,-1.90924799,-2.40164161,0.000000
-31.30121040,-1.71855462,-2.40164113,0.000000
-31.31109238,-1.52773440,-2.40164089,0.000000
-31.31976509,-1.33690429,-2.40164042,0.000000
-31.32734299,-1.14599609,-2.40163994,0.000000
-31.33370972,-0.95506835,-2.40163946,0.000000
-31.33894539,-0.76409179,-2.40163922,0.000000
-31.34304619,-0.57307619,-2.40163875,0.000000
-31.34593773,-0.38208008,-2.40163827,0.000000
-31.34769440,-0.19103515,-2.40163803,0.000000
-28.56238174,-0.00000977,-2.40164113,0.000000
-28.56183624,0.17405273,-2.40164065,0.000000
-28.56027222,0.34814453,-2.40164042,0.000000
-28.55761719,0.52215821,-2.40164018,0.000000
-28.55390549,0.69618160,-2.40163970,0.000000
-28.54914093,0.87017578,-2.40163946,0.000000
-28.54331970,1.04414058,-2.40163898,0.000000
-28.53640556,1.21808589,-2.40163851,0.000000
-28.52847672,1.39200187,-2.40163827,0.000000
-28.51937485,1.56581056,-2.40163779,0.000000
-28.50933456,1.73958981,-2.40163755,0.000000
-28.49820328,1.91329098,-2.40163732,0.000000
-28.48601532,2.08693361,-2.40163684,0.000000
-27.65617180,2.19567370,-2.33275747,0.000000
-27.23689461,2.32952142,-2.29854798,0.000000
-27.22214699,2.49544907,-2.29854417,0.000000
-27.20634651,2.66126943,-2.29853678,0.000000
-25.02322197,2.60178709,-2.11539555,31.000000
-25.50929642,2.80957031,-2.15789533,0.000000
-27.15288925,3.15818357,-2.29851460,0.000000
-27.13304710,3.32356429,-2.29850745,0.000000
-27.11218643,3.48887682,-2.29850006,0.000000
-27.09035110,3.65404296,-2.29849267,0.000000
-27.06749916,3.81903315,-2.29848528,0.000000
-27.04363251,3.98390627,-2.29847813,0.000000
-27.01878929,4.14862299,-2.29847074,0.000000
-26.99288940,4.31321287,-2.29846334,0.000000
-26.96601486,4.47762680,-2.29845595,0.000000
-26.93818283,4.64186525,-2.29844880,0.000000
-26.90925789,4.80591774,-2.29844141,0.000000
-26.87937355,4.96981430,-2.29843426,0.000000
-26.84851456,5.13351536,-2.29842687,0.000000
-26.81664085,5.29701138,-2.29841971,0.000000
-26.78378868,5.46032238,-2.29841232,0.000000
-26.74988174,5.62344694,-2.29840517,0.000000
-26.71507835,5.78632784,-2.29839802,0.000000
-26.67921829,5.94900370,-2.29839087,0.000000
-26.64238167,6.11149406,-2.29838347,0.000000
-26.75597572,6.30940437,-2.31145692,0.000000
-26.71703148,6.47235346,-2.31145644,0.000000
-26.67710876,6.63505840,-2.31145620,0.000000
-26.63617134,6.79749966,-2.31145573,0.000000
-26.59425735,6.95970678,-2.31145573,0.000000
-26.55132675,7.12165022,-2.31145525,0.000000
-26.50742149,7.28331041,-2.31145501,0.000000
-26.46257782,7.44474602,-2.31145477,0.000000
-26.41669846,7.60584927,-2.31145453,0.000000
-26.36984253,7.76669884,-2.31145406,0.000000
-22.80308533,6.86747074,-2.00244069,0.000000
-22.53046799,6.93540001,-1.98217189,0.000000
-22.11691284,6.95596647,-1.94948232,0.000000
-21.64929581,6.95415020,-1.91196728,0.000000
-20.91804695,6.86015606,-1.85104668,0.000000
-20.49044800,6.85851526,-1.81687403,0.000000
-20.31322289,6.93715811,-1.80487490,0.000000
-19.94535065,6.94753885,-1.77591729,0.000000
-19.55656242,6.94603491,-1.74503469,0.000000
-19.18101501,6.94458961,-1.71527040,0.000000
-18.81806564,6.94316387,-1.68656003,0.000000
-18.22207069,6.84972620,-1.63686001,0.000000
-17.89316368,6.85083008,-1.61103415,0.000000
-17.79843712,6.93921852,-1.60628462,0.000000
-17.47976494,6.93798828,-1.58131254,0.000000
-17.17080116,6.93679667,-1.55715621,0.000000
-16.87119102,6.93562508,-1.53379011,0.000000
-16.58036995,6.93449211,-1.51116574,0.000000
-16.08179665,6.84142542,-1.46949792,0.000000
-15.81115246,6.84039068,-1.44855011,0.000000
-15.61744118,6.86986303,-1.43463039,0.000000
-15.53833961,6.94838858,-1.43122125,0.000000
-15.39187431,6.99577141,-1.42161500,0.000000
-15.14406204,6.99481440,-1.40264320,0.000000
-14.90277290,6.99387693,-1.38421953,0.000000
-14.66773415,6.99297857,-1.36631739,0.000000
-14.43871021,6.99207973,-1.34892917,0.000000
-14.21542931,6.99121094,-1.33202052,0.000000
-13.99765587,6.99037075,-1.31558669,0.000000
-13.78519535,6.98955059,-1.29959404,0.000000
-13.57781219,6.98874998,-1.28403711,0.000000
-13.37531185,6.98795891,-1.26888871,0.000000
-13.17753887,6.98719692,-1.25414276,0.000000
-12.98433590,6.98643541,-1.23978281,0.000000
-12.79542923,6.98571253,-1.22579134,0.000000
-12.61081982,6.98499012,-1.21216249,0.000000
-12.43019485,6.98428679,-1.19887090,0.000000
-12.25351524,6.98362303,-1.18591368,0.000000
-12.08062458,6.98293924,-1.17327166,0.000000
-11.91132832,6.98229456,-1.16094315,0.000000
-11.74560547,6.98164034,-1.14891732,0.000000
-11.58322239,6.98101568,-1.13717484,0.000000
-11.42413998,6.98041010,-1.12571216,0.000000
-11.26820278,6.97980452,-1.11451828,0.000000
-11.15892506,7.00657225,-1.10791183,0.000000
-11.15857410,7.10152340,-1.11215174,0.000000
-11.15820313,7.19720697,-1.11645830,0.000000
-16.32972527,10.67437458,-1.64039683,0.000000
-16.32919884,10.81663036,-1.64693260,0.000000
-16.32865143,10.96001911,-1.65358245,0.000000
-16.32806587,11.10457039,-1.66034830,0.000000
-16.32753944,11.25033188,-1.66723204,0.000000
-16.32695198,11.39729500,-1.67423487,0.000000
-16.32636642,11.54549789,-1.68135965,0.000000
-16.32578087,11.69499016,-1.68861079,0.000000
-16.32519531,11.84578133,-1.69598567,0.000000
-16.32460976,11.99788094,-1.70348823,0.000000
-16.32400322,12.15136719,-1.71112239,0.000000
-16.32339859,12.30622005,-1.71889091,0.000000
-16.32279205,12.46250916,-1.72679317,0.000000
-16.32218742,12.62023449,-1.73483253,0.000000
-16.32158089,12.77944279,-1.74301231,0.000000
-16.32093620,12.94016552,-1.75133467,0.000000
-16.32031250,13.10243130,-1.75980282,0.000000
-16.31968689,13.26628876,-1.76841879,0.000000
-16.31904221,13.43176746,-1.77718782,0.000000
-16.31839752,13.59889603,-1.78610849,0.000000
-16.31775284,13.76771450,-1.79518580,0.000000
-16.12193298,13.77157211,-1.78284395,0.000000
-15.92349529,13.77081013,-1.77014840,0.000000
-15.72787094,13.77004814,-1.75769770,0.000000
-15.58056641,13.80970669,-1.75060833,0.000000
-15.49767590,13.90581989,-1.75078213,0.000000
-2.93103504,2.66240239,-0.33294967,0.000000
-2.90457034,2.67085934,-0.33178878,0.000000
-2.88337874,2.68399405,-0.33122969,0.000000
-2.87347651,2.70764637,-0.33198103,0.000000
-2.87757802,2.74482417,-0.33438322,0.000000
-15.49359322,14.95998001,-1.81093657,0.000000
-15.49285126,15.14281178,-1.82160628,0.000000
-15.49214840,15.32783127,-1.83247030,0.000000
-15.49144459,15.51506805,-1.84353507,0.000000
-15.58386707,15.79908180,-1.86596310,0.000000
-15.58564377,15.99468708,-1.87781215,0.000000
-15.59249973,16.19804573,-1.89049470,0.000000
-15.59945297,16.40415955,-1.90341890,0.000000
-15.60648441,16.61312485,-1.91659653,0.000000
-15.61357403,16.82501030,-1.93002880,0.000000
-15.62083912,17.03990173,-1.94372249,0.000000
-15.62818336,17.25789070,-1.95768607,0.000000
-15.63558578,17.47901344,-1.97192526,0.000000
-15.58927727,17.64243126,-1.97960413,0.000000
-15.76023388,18.05650330,-2.01525283,0.000000
-15.76808548,18.28928757,-2.03046942,0.000000
-15.77603436,18.52560425,-2.04599333,0.000000
-15.78410149,18.76557541,-2.06183386,0.000000
-15.79230404,19.00930595,-2.07800007,0.000000
-15.80062485,19.25691414,-2.09450102,0.000000
-15.64523411,19.30627823,-2.08946371,0.000000
-15.70789051,19.62688446,-2.11376047,0.000000
-15.71658134,19.88494110,-2.13119650,0.000000
-15.72537041,20.14727402,-2.14900255,0.000000
-15.73437500,20.41407204,-2.16719079,0.000000
-15.74347591,20.68542862,-2.18577123,0.000000
-15.75277328,20.96146393,-2.20475507,0.000000
-15.76222610,21.24239159,-2.22415614,0.000000
-15.77183533,21.52827072,-2.24398565,0.000000
-15.78164005,21.81932640,-2.26425648,0.000000
-15.79160118,22.11571312,-2.28498220,0.000000
-15.80177689,22.41755867,-2.30617690,0.000000
-15.69949150,22.56318283,-2.31127310,0.000000
-15.56171799,22.65842628,-2.31127310,0.000000
-15.42331982,22.75285149,-2.31127310,0.000000
-15.28437424,22.84643555,-2.31127310,0.000000
-15.14484310,22.93914986,-2.31127310,0.000000
-15.00476551,23.03102493,-2.31127310,0.000000
-14.86415958,23.12203979,-2.31127310,0.000000
-14.72294903,23.21219635,-2.31127310,0.000000
-14.58121014,23.30147362,-2.31127310,0.000000
-14.43896484,23.38991165,-2.31127310,0.000000
-14.29611301,23.47748947,-2.31127310,0.000000
-14.15281200,23.56415939,-2.31127310,0.000000
-14.00894547,23.64995956,-2.31127310,0.000000
-13.86453056,23.73491096,-2.31127310,0.000000
-13.71962833,23.81895447,-2.31127310,0.000000
-13.57421875,23.90212822,-2.31127310,0.000000
-13.42831993,23.98442268,-2.31127310,0.000000
-13.28187466,24.06579971,-2.31127310,0.000000
-13.13496017,24.14628792,-2.31127310,0.000000
-12.98757744,24.22589874,-2.31127310,0.000000
-12.83970642,24.30459023,-2.31127310,0.000000
-12.69132805,24.38240242,-2.31127310,0.000000
-12.54251957,24.45927620,-2.31127310,0.000000
-12.39324188,24.53525352,-2.31127310,0.000000
-12.24345684,24.61035156,-2.31127310,0.000000
-12.09328079,24.68450165,-2.31127334,0.000000
-11.94261646,24.75773430,-2.31127334,0.000000
-11.79148388,24.83007813,-2.31127334,0.000000
-11.63994122,24.90146446,-2.31127334,0.000000
-11.48796844,24.97194290,-2.31127334,0.000000
-11.33556652,25.04150391,-2.31127334,0.000000
-11.18277359,25.11009789,-2.31127357,0.000000
-11.02955055,25.17780304,-2.31127357,0.000000
-10.87587833,25.24452019,-2.31127357,0.000000
-10.72183609,25.31032181,-2.31127381,0.000000
-10.56740189,25.37522316,-2.31127381,0.000000
-10.41253853,25.43915939,-2.31127381,0.000000
-10.25732422,25.50213814,-2.31127381,0.000000
-10.10175800,25.56415939,-2.31127405,0.000000
-9.94574165,25.62525368,-2.31127405,0.000000
-9.78941345,25.68538094,-2.31127405,0.000000
-9.63271427,25.74456024,-2.31127429,0.000000
-9.47558594,25.80279160,-2.31127429,0.000000
-9.31820297,25.86005783,-2.31127429,0.000000
-9.16040993,25.91637611,-2.31127453,0.000000
-9.00230408,25.97169876,-2.31127453,0.000000
-8.84386730,26.02608299,-2.31127477,0.000000
-8.68511677,26.07954979,-2.31127477,0.000000
-8.52599621,26.13199234,-2.31127477,0.000000
-8.36660099,26.18345642,-2.31127501,0.000000
-8.20689392,26.23397446,-2.31127501,0.000000
-8.04683590,26.28348541,-2.31127524,0.000000
-7.88652325,26.33204079,-2.31127524,0.000000
-7.72589827,26.37960815,-2.31127548,0.000000
-7.56500006,26.42620087,-2.31127548,0.000000
-7.40378904,26.47182465,-2.31127548,0.000000
-7.24234343,26.51646423,-2.31127572,0.000000
-3.31523418,12.43581963,-1.08217049,0.000000
-3.23410153,12.43550777,-1.08040893,0.000000
-3.15324211,12.43519497,-1.07869291,0.000000
-3.07265615,12.43488216,-1.07702065,0.000000
-2.99226546,12.43457031,-1.07539487,0.000000
-2.91214848,12.43425751,-1.07381332,0.000000
-2.83226562,12.43394470,-1.07227540,0.000000
-2.75257802,12.43363285,-1.07078254,0.000000
-2.67316389,12.43332005,-1.06933296,0.000000
-2.59390616,12.43304634,-1.06792736,0.000000
-2.51484370,12.43273449,-1.06656551,0.000000
-2.43601561,12.43242168,-1.06524348,0.000000
-2.35742188,12.43210888,-1.06396830,0.000000
-2.27898431,12.43179703,-1.06273437,0.000000
-2.20066404,12.43150330,-1.06154203,0.000000
-2.12257814,12.43119144,-1.06039059,0.000000
-2.04460931,12.43089771,-1.05928385,0.000000
-1.96683586,12.43060493,-1.05821574,0.000000
-1.88921869,12.43031216,-1.05718887,0.000000
-1.81173825,12.42998981,-1.05620623,0.000000
-1.73443353,12.42967701,-1.05526161,0.000000
-1.65720701,12.42938423,-1.05435932,0.000000
-1.58013666,12.42909145,-1.05349743,0.000000
-1.50318360,12.42877865,-1.05267632,0.000000
-1.42634761,12.42850590,-1.05189562,0.000000
-1.34962893,12.42819309,-1.05115473,0.000000
-1.27302730,12.42788029,-1.05045378,0.000000
-1.19650388,12.42760754,-1.04979312,0.000000
-1.12009764,12.42729473,-1.04917204,0.000000
-1.04376948,12.42700195,-1.04859054,0.000000
-0.96748042,12.42672825,-1.04804885,0.000000
-0.89130855,12.42643547,-1.04754663,0.000000
-0.81521481,12.42612267,-1.04708338,0.000000
-0.73916012,12.42582989,-1.04665947,0.000000
-0.66318357,12.42555618,-1.04627502,0.000000
-0.58724606,12.42526340,-1.04592955,0.000000
-0.51138669,12.42493153,-1.04562318,0.000000
-0.43552732,12.42465782,-1.04535520,0.000000
-0.35974610,12.42434502,-1.04512727,0.000000
-0.28396484,12.42407227,-1.04493773,0.000000
-0.20822266,12.42375946,-1.04478669,0.000000
-0.13248047,12.42348576,-1.04467463,0.000000
-0.05673828,12.42319298,-1.04460216,0.000000
0.01896484,12.42288017,-1.04456592,0.000000
0.09466796,12.42258739,-1.04457092,0.000000
0.17037109,12.42231464,-1.04461408,0.000000
0.24611327,12.42202091,-1.04469597,0.000000
0.32185546,12.42172813,-1.04481697,0.000000
0.39759764,12.42141533,-1.04497707,0.000000
0.47337890,12.42114258,-1.04517543,0.000000
0.54919922,12.42084980,-1.04541314,0.000000
0.62505859,12.42055607,-1.04568946,0.000000
0.70091796,12.42024422,-1.04600489,0.000000
0.77689451,12.41995049,-1.04635990,0.000000
0.85287106,12.41965771,-1.04675341,0.000000
0.92892575,12.41936493,-1.04718673,0.000000
1.00501955,12.41907215,-1.04765821,0.000000
0.63744140,7.32123995,-0.61792797,0.000000
0.68187499,7.31569338,-0.61779481,0.000000
0.69007814,6.94521475,-0.58685559,0.000000
0.63480467,6.01605463,-0.50866151,0.000000
0.67156249,6.01298809,-0.50873715,0.000000
0.70867187,6.01285124,-0.50908124,0.000000
0.74585938,6.01269531,-0.50944459,0.000000
0.79062498,6.07050753,-0.51474214,0.000000
0.82824218,6.07037115,-0.51514816,0.000000
0.86593747,6.07021475,-0.51557434,0.000000
0.90367186,6.07007790,-0.51602006,0.000000
0.94152343,6.06992197,-0.51648605,0.000000
0.97937500,6.06976557,-0.51697099,0.000000
1.01738274,6.06962872,-0.51747698,0.000000
1.05542970,6.06949186,-0.51800340,0.000000
1.09351563,6.06931639,-0.51855010,0.000000
1.13175774,6.06919909,-0.51911694,0.000000
1.16999996,6.06904268,-0.51970428,0.000000
1.20843744,6.06888676,-0.52031296,0.000000
1.24687493,6.06873035,-0.52094191,0.000000
1.28542972,6.06857395,-0.52159196,0.000000
1.32414055,6.06845713,-0.52226287,0.000000
1.36289060,6.06830072,-0.52295500,0.000000
1.40171874,6.06812477,-0.52366883,0.000000
1.44070303,6.06798792,-0.52440381,0.000000
1.47976553,6.06783199,-0.52516049,0.000000
1.51898432,6.06767559,-0.52593857,0.000000
1.55828118,6.06753874,-0.52673906,0.000000
1.59773433,6.06738281,-0.52756119,0.000000
1.63734376,6.06722641,-0.52840501,0.000000
1.67703116,6.06707001,-0.52927184,0.000000
1.71679688,6.06691408,-0.53016144,0.000000
1.75679684,6.06677723,-0.53107345,0.000000
1.79687500,6.06662083,-0.53200895,0.000000
1.83710933,6.06644535,-0.53296703,0.000000
1.87749994,6.06628895,-0.53394836,0.000000
1.91804683,6.06613255,-0.53495389,0.000000
1.94015622,6.00840807,-0.53089464,0.000000
1.98046875,6.00791025,-0.53190380,0.000000
2.02109361,6.00775385,-0.53297591,0.000000
2.06191397,6.00757790,-0.53406173,0.000000
4.33367157,12.38039970,-1.10292387,0.000000
4.41839838,12.38006783,-1.10527122,0.000000
4.50347662,12.37972641,-1.10767376,0.000000
4.58902311,12.37940407,-1.11012566,0.000000
4.67488289,12.37907219,-1.11263072,0.000000
4.76117182,12.37875938,-1.11518657,0.000000
4.84785128,12.37842751,-1.11780083,0.000000
4.93492174,12.37806606,-1.12046015,0.000000
5.02238274,12.37771416,-1.12318099,0.000000
5.11031246,12.37736320,-1.12595534,0.000000
5.19871092,12.37703133,-1.12878478,0.000000
5.28753901,12.37669849,-1.13166857,0.000000
5.37197256,12.36521435,-1.13359499,0.000000
5.47794914,12.40174770,-1.13998389,0.000000
5.56833982,12.40141582,-1.14304817,0.000000
5.65923834,12.40104485,-1.14617360,0.000000
5.75064421,12.40069294,-1.14935851,0.000000
5.84255838,12.40034199,-1.15260422,0.000000
5.91066408,12.34911060,-1.15117061,0.000000
6.00324202,12.34875965,-1.15452349,0.000000
6.09640598,12.34840775,-1.15794599,0.000000
6.19011688,12.34803677,-1.16143036,0.000000
6.28437471,12.34768486,-1.16497362,0.000000
6.37921858,12.34731388,-1.16858685,0.000000
6.47468758,12.34694290,-1.17226481,0.000000
6.57074213,12.34657192,-1.17600954,0.000000
6.66738272,12.34618092,-1.17982244,0.000000
7.29785156,13.31888676,-1.27700090,0.000000
7.40347624,13.31846619,-1.28126335,0.000000
7.50988245,13.31803703,-1.28560257,0.000000
7.61697245,13.31763649,-1.29001892,0.000000
7.72482395,13.31720638,-1.29451454,0.000000
7.83343744,13.31678677,-1.29908776,0.000000
7.94281244,13.31634712,-1.30374420,0.000000
8.05296898,13.31591797,-1.30848253,0.000000
8.16394520,13.31547832,-1.31330442,0.000000
8.27576160,13.31501961,-1.31821990,0.000000
8.38837910,13.31458950,-1.32320428,0.000000
8.50191402,13.31414986,-1.32828271,0.000000
8.61628914,13.31371021,-1.33345246,0.000000
8.73156261,13.31324196,-1.33871186,0.000000
8.84777355,13.31278324,-1.34406126,0.000000
8.96490192,13.31234360,-1.34950590,0.000000
9.08298779,13.31185532,-1.35504484,0.000000
9.20207024,13.31141567,-1.36068082,0.000000
9.32210922,13.31091785,-1.36641288,0.000000
9.44320297,13.31043911,-1.37224603,0.000000
9.56531239,13.30997086,-1.37818110,0.000000
9.68853474,13.30949211,-1.38421905,0.000000
9.81285095,13.30899429,-1.39036191,0.000000
9.93820286,13.30849552,-1.39661252,0.000000
10.06472588,13.30801773,-1.40297163,0.000000
10.19244099,13.30749989,-1.40943909,0.000000
10.32132816,13.30698204,-1.41602051,0.000000
10.45144463,13.30649376,-1.42271781,0.000000
10.58277321,13.30597591,-1.42953181,0.000000
10.71535110,13.30543900,-1.43646479,0.000000
10.84927750,13.30490208,-1.44352090,0.000000
10.98457050,13.30438423,-1.45069849,0.000000
11.12109375,13.30384731,-1.45800352,0.000000
11.25910091,13.30329037,-1.46543694,0.000000
11.39849567,13.30275345,-1.47300124,0.000000
11.53937435,13.30219650,-1.48069942,0.000000
11.68167973,13.30162048,-1.48853421,0.000000
11.82554626,13.30106449,-1.49650848,0.000000
11.97095680,13.30048752,-1.50462461,0.000000
12.11796856,13.29991150,-1.51288724,0.000000
12.26660156,13.29933548,-1.52129304,0.000000
12.41683578,13.29872036,-1.52985513,0.000000
12.56890583,13.29811478,-1.53857017,0.000000
12.72261715,13.29751968,-1.54744136,0.000000
12.87820244,13.29692364,-1.55647278,0.000000
12.93015575,13.18880844,-1.55301237,0.000000
12.92957020,13.02838802,-1.54337311,0.000000
12.92890549,12.86994076,-1.53390861,0.000000
12.92831993,12.71341801,-1.52461600,0.000000
12.92771435,12.55876923,-1.51549101,0.000000
12.92714787,12.40597630,-1.50653100,0.000000
12.99691391,12.32166958,-1.50588036,0.000000
13.15593719,12.32104492,-1.51557589,0.000000
13.31699181,12.32041931,-1.52545404,0.000000
13.48019505,12.31979465,-1.53551936,0.000000
13.64554691,12.31914997,-1.54577541,0.000000
13.19814396,11.77003860,-1.48694146,0.000000
13.21232414,11.63891602,-1.48051679,0.000000
13.27087879,11.54764652,-1.47917140,0.000000
13.36425781,11.48651314,-1.48174238,0.000000
13.56968689,11.52002907,-1.49670744,0.000000
19.60613251,16.44014549,-2.15142584,0.000000
19.61488152,16.24491119,-2.14148045,0.000000
19.61519432,16.04468727,-2.13080287,0.000000
19.58054733,15.81816387,-2.11652541,0.000000
19.57976532,15.62125969,-2.10611653,0.000000
19.61285019,15.45299816,-2.09950233,0.000000
9.51367188,7.40230465,-1.01356590,0.000000
9.55929661,7.34468746,-1.01363432,0.000000
15.87937450,12.04750919,-1.67598748,0.000000
15.91142559,11.91970634,-1.67166710,0.000000
15.96124935,11.80585957,-1.66931486,0.000000
16.04794884,11.71936512,-1.67088020,0.000000
16.13480377,11.63269520,-1.67251289,0.000000
16.26105499,11.57375908,-1.67826056,0.000000
16.41714859,11.53481388,-1.68708324,0.000000
16.68330002,11.57058525,-1.70715475,0.000000
19.50535202,13.35245132,-1.98755825,0.000000
19.47865105,13.16058540,-1.97662902,0.000000
19.46648407,12.98026371,-1.96733129,0.000000
19.42308617,12.78104496,-1.95503318,0.000000
19.44158173,12.62408161,-1.94911861,0.000000
19.45992088,12.46807575,-1.94330728,0.000000
19.53632736,12.34974575,-1.94338143,0.000000
19.59343719,12.21934509,-1.94161558,0.000000
19.67107391,12.10190392,-1.94196868,0.000000
19.77074242,11.99773407,-1.94455230,0.000000
19.84714890,11.87919903,-1.94491136,0.000000
19.98492050,11.79687500,-1.95133722,0.000000
20.12367058,11.71396446,-1.95787513,0.000000
20.31597519,11.66074181,-1.96962965,0.000000
20.48285103,11.59115219,-1.97892070,0.000000
20.65521431,11.52304649,-1.98874676,0.000000
20.83574104,11.45783138,-1.99937236,0.000000
20.98843765,11.37576103,-2.00733471,0.000000
21.15699196,11.30084896,-2.01683354,0.000000
21.33718681,11.23050785,-2.02744937,0.000000
21.53839874,11.16931629,-2.04005861,0.000000
21.70318222,11.08747005,-2.04923296,0.000000
21.88142586,11.01090813,-2.05968809,0.000000
22.05359268,10.92960930,-2.06959653,0.000000
22.32390594,10.89459896,-2.08869314,0.000000
22.83019447,10.96993160,-2.12976003,0.000000
23.25859261,11.00182629,-2.16343021,0.000000
23.79734230,11.07969666,-2.20721936,0.000000
24.10539055,11.04487324,-2.22950912,0.000000
24.57035065,11.07725525,-2.26622462,0.000000
24.97290993,11.07611275,-2.29708457,0.000000
25.19910049,10.99313450,-2.31168818,0.000000
25.26568222,10.83937454,-2.31168866,0.000000
25.33124924,10.68519497,-2.31168914,0.000000
25.39593697,10.53063488,-2.31168962,0.000000
25.45964813,10.37565422,-2.31168985,0.000000
25.52238274,10.22033215,-2.31169033,0.000000
25.58415985,10.06457043,-2.31169081,0.000000
25.64507675,9.90847588,-2.31169105,0.000000
25.70497894,9.75201130,-2.31169152,0.000000
25.76390648,9.59516621,-2.31169200,0.000000
25.82191277,9.43799782,-2.31169224,0.000000
25.87898445,9.28044891,-2.31169271,0.000000
25.93507767,9.12259769,-2.31169319,0.000000
25.99015617,8.96435547,-2.31169367,0.000000
26.04431534,8.80580044,-2.31169391,0.000000
26.09749985,8.64692402,-2.31169438,0.000000
26.14972687,8.48773384,-2.31169486,0.000000
26.20097542,8.32822227,-2.31169510,0.000000
26.25121117,8.16837883,-2.31169558,0.000000
26.30054665,8.00826168,-2.31169605,0.000000
26.34890556,7.84783173,-2.31169653,0.000000
26.39620972,7.68711901,-2.31169677,0.000000
26.44257736,7.52610350,-2.31169724,0.000000
26.48792839,7.36482382,-2.31169772,0.000000
26.53232384,7.20326138,-2.31169820,0.000000
26.57570267,7.04142570,-2.31169844,0.000000
26.61816406,6.87933588,-2.31169891,0.000000
26.65964699,6.71701145,-2.31169939,0.000000
26.70003891,6.55439425,-2.31169963,0.000000
26.73953056,6.39157200,-2.31170011,0.000000
26.77798843,6.22848606,-2.31170034,0.000000
26.81542969,6.06520510,-2.31170082,0.000000
26.69800758,5.86785126,-2.29845023,0.000000
26.73324203,5.70502901,-2.29845047,0.000000
26.76749992,5.54200172,-2.29845095,0.000000
26.80081940,5.37879848,-2.29845142,0.000000
26.83314323,5.21536112,-2.29845190,0.000000
26.86441422,5.05172825,-2.29845214,0.000000
26.89468765,4.88791990,-2.29845262,0.000000
26.92398453,4.72393560,-2.29845309,0.000000
26.95226479,4.55975580,-2.29845333,0.000000
26.97957039,4.39543915,-2.29845381,0.000000
27.00585938,4.23092747,-2.29845405,0.000000
27.03113174,4.06624031,-2.29845452,0.000000
27.05546761,3.90145493,-2.29845476,0.000000
27.07871056,3.73647451,-2.29845524,0.000000
27.10097504,3.57139635,-2.29845572,0.000000
27.12222672,3.40620112,-2.29845595,0.000000
27.14249992,3.24082994,-2.29845643,0.000000
27.16177750,3.07538080,-2.29845691,0.000000
27.17996025,2.90975571,-2.29845715,0.000000
26.68960953,2.69286132,-2.25556016,0.000000
23.21839714,2.19976568,-1.96102500,0.000000
27.22871017,2.41241217,-2.29845810,0.000000
27.24285126,2.24641585,-2.29845858,0.000000
27.25609398,2.08036137,-2.29845905,0.000000
27.96048737,1.96282220,-2.35681248,0.000000
28.50480461,1.82651365,-2.40171218,0.000000
28.51542854,1.65276361,-2.40171242,0.000000
28.52501869,1.47895503,-2.40171289,0.000000
28.53345680,1.30506837,-2.40171313,0.000000
28.54089737,1.13118160,-2.40171361,0.000000
28.54724503,0.95721680,-2.40171385,0.000000
28.55257797,0.78325194,-2.40171432,0.000000
28.55679703,0.60922849,-2.40171480,0.000000
28.56003761,0.43518555,-2.40171528,0.000000
28.56216812,0.26112303,-2.40171552,0.000000
28.56320190,0.08704101,-2.40171599,0.000000
28.56322289,-0.08702148,-2.40171623,0.000000
28.56210899,-0.26110351,-2.40171647,0.000000
28.56007767,-0.43516600,-2.40171695,0.000000
28.55689430,-0.60920894,-2.40171742,0.000000
28.55263519,-0.78323239,-2.40171766,0.000000
28.54734230,-0.95721680,-2.40171814,0.000000
28.54095650,-1.13118160,-2.40171838,0.000000
28.53353500,-1.30508780,-2.40171885,0.000000
28.52507782,-1.47895503,-2.40171909,0.000000
28.51554680,-1.65274405,-2.40171957,0.000000
28.50492096,-1.82651365,-2.40171981,0.000000
28.49328041,-2.00018549,-2.40172029,0.000000
28.48056602,-2.17379880,-2.40172052,0.000000
28.46683502,-2.34733391,-2.40172100,0.000000
28.45195198,-2.52075195,-2.40172124,0.000000
28.43605423,-2.69411135,-2.40172148,0.000000
28.41913986,-2.86735344,-2.40172195,0.000000
28.40115166,-3.04051757,-2.40172243,0.000000
28.38207054,-3.21352530,-2.40172267,0.000000
28.36199188,-3.38643551,-2.40172291,0.000000
28.34078026,-3.55920887,-2.40172338,0.000000
28.31863213,-3.73184562,-2.40172362,0.000000
28.29531097,-3.90438461,-2.40172410,0.000000
28.27103424,-4.07672834,-2.40172434,0.000000
28.24568367,-4.24893522,-2.40172458,0.000000
28.21925735,-4.42100573,-2.40172505,0.000000
28.19179535,-4.59291983,-2.40172529,0.000000
28.16328049,-4.76463842,-2.40172577,0.000000
28.13371086,-4.93620110,-2.40172601,0.000000
28.10312462,-5.10754871,-2.40172625,0.000000
28.07144547,-5.27872038,-2.40172672,0.000000
28.03878784,-5.44965792,-2.40172696,0.000000
